-8.62871838 -42.10089493 1.89463365
-7.74688816 -42.28013611 5.57431746
-8.23000145 -42.18193817 6.08005047
-9.21933651 -41.98084641 2.50337172
-9.12323856 -42.00038147 2.41655445
-10.30388260 -41.73668671 5.03196621
-10.92511177 -41.56651306 4.34225750
-11.82808781 -41.31916428 7.24315786
-10.21032333 -41.76231384 3.40044641
-10.57708931 -41.66184616 7.06264448
-11.40383148 -41.43537903 7.88050175
-10.82400513 -41.59421158 7.41176414
-9.16340828 -41.99221420 5.25025082
-9.35722160 -41.95281982 3.60758781
-9.55295181 -41.91303635 1.69328868
-9.77562046 -41.86777878 2.18768215
-9.39844131 -41.94444275 4.63658333
-9.47924423 -41.92802048 6.22616339
-9.18077850 -41.98868561 3.45459580
-12.58531857 -41.11174011 6.83167505
-12.42085361 -41.15679169 7.83736753
-11.19651031 -41.49217224 0.36749122
-11.64878750 -41.36827850 4.62640047
-12.16044998 -41.22812271 1.46588504
-11.92638302 -41.29224014 1.21098721
-11.27166176 -41.47158432 4.61762571
-13.16357231 -40.92227554 5.08520508
-13.02177525 -40.97151566 5.13899899
-13.29590130 -40.87632370 2.94714308
-12.94547367 -40.99800873 2.81588697
-13.06450081 -40.95667648 7.40592909
-13.75171375 -40.71805191 1.53855872
-13.05245209 -40.96086121 6.11693001
-13.44150925 -40.82576370 9.44487000
-15.34076214 -40.16627121 0.93681383
-14.34280014 -40.51280212 6.49861431
-14.50202656 -40.45751190 6.55184269
-15.28692818 -40.18496704 5.57420111
-14.49536705 -40.45982742 8.28400326
-15.13797283 -40.23668671 7.59293175
-18.21982574 -38.94445801 3.07333469
-18.32904434 -38.88926697 2.32660222
-19.16153908 -38.46858978 7.87647009
-18.34238434 -38.88252640 2.98918724
-19.43396759 -38.33092499 9.58780289
-18.25712776 -38.92560959 0.65620941
-18.30416870 -38.90183640 2.25773621
-15.98179626 -39.90318680 9.37201405
-17.89588928 -39.09154129 3.42199516
-17.55697632 -39.23525238 7.49981356
-16.65808296 -39.61641693 6.94260645
-18.01750755 -39.03997040 7.36669350
-17.07148170 -39.44112015 8.41921806
-17.94460678 -39.07088470 5.31193304
-17.37661552 -39.31173706 1.04205334
-16.43787956 -39.70979309 2.94984961
-16.86100960 -39.53036880 3.43057728
-15.90526199 -39.93564224 5.98033953
-16.62661552 -39.62976074 2.81551504
-17.41355515 -39.29607010 1.07248616
-16.15380287 -39.83025360 2.84590745
-19.39269829 -38.35177994 3.36401129
-19.58302879 -38.25559998 5.58506966
-19.65141869 -38.22103882 3.31550241
-19.74307060 -38.17472839 5.42682219
-20.58049011 -37.75156021 9.41664886
-19.40261650 -38.34676743 0.13632803
-20.44251823 -37.82128143 0.90773332
-20.81619644 -37.61930084 6.32344866
-21.07023811 -37.46883392 6.20606804
-21.22302818 -37.37833786 4.87548637
-21.39412498 -37.27699661 3.04477930
-21.20845795 -37.38696671 2.38202238
-21.46332741 -37.23600769 6.10218048
-22.29533195 -36.74320984 8.53061962
-22.70822144 -36.49865341 2.67966962
-22.32833672 -36.72365952 4.36516809
-21.52328491 -37.20049286 1.69522285
-21.49087524 -37.21969223 3.10421848
-22.40628242 -36.67749405 0.43202704
-22.59612465 -36.56505203 7.44469929
-21.60126495 -37.15430450 2.22497749
-22.62892914 -36.54561996 5.81595230
-25.69501305 -34.46932602 3.88544083
-26.05162811 -34.18770981 7.14455032
-25.53398323 -34.59648895 6.24051332
-26.15214729 -34.10832977 3.56201124
-25.92351532 -34.28887939 5.50006866
-26.33396149 -33.96475220 5.60744047
-26.62535858 -33.73463821 9.87978458
-24.31038857 -35.43925476 8.01206303
-24.79360008 -35.10754776 9.88207245
-25.40162277 -34.69016266 4.90588999
-24.09267235 -35.58870697 9.61328220
-23.66164970 -35.88459015 8.78017807
-24.70220947 -35.17028427 4.82865047
-23.23011398 -36.18082047 9.82093620
-23.20063400 -36.20105743 6.01002693
-23.73353004 -35.83524323 1.82120728
-24.35072327 -35.41156769 1.79185057
-24.05444336 -35.61494827 4.67531586
-23.16436958 -36.22595596 6.76506138
-23.77904320 -35.80400085 2.34002161
-25.27182579 -34.77926254 0.08110809
-23.18663216 -36.21066666 7.12450886
-28.71965981 -31.97088814 7.26861095
-28.68186951 -32.00506973 4.97905731
-27.77750587 -32.82301712 7.16904831
-27.97026825 -32.64867401 5.28230476
-29.01189041 -31.70658302 8.28324032
-28.48329163 -32.18466949 7.28858757
-28.51234436 -32.15839386 6.20753860
-27.24361229 -33.24641037 0.83941448
-25.85760689 -34.34092712 0.01158159
-25.60441589 -34.54086685 0.25202405
-26.40103149 -33.91178894 2.79985452
-27.49444580 -33.04832840 5.08210897
-26.07460976 -34.16955948 0.31437546
-26.96509933 -33.46634674 6.11730957
-31.28452110 -29.47088051 7.06795454
-29.93282509 -30.86852264 5.79925680
-30.40654945 -30.37869644 8.87315083
-30.39408875 -30.39158058 4.83165932
-30.24299049 -30.54781342 9.75337696
-31.65733719 -29.08539200 9.12281895
-30.79755592 -29.97439766 6.34409618
-28.39352798 -32.26585770 2.64963722
-29.07218742 -31.65204620 4.92185783
-29.77257919 -31.01857948 8.48123646
-29.24238014 -31.49811554 3.94668818
-29.85552788 -30.94355774 7.60560465
-29.37845993 -31.37504005 1.58200490
-29.67460251 -31.10719490 1.37699056
-30.28068161 -30.50884247 0.86226737
-31.24033165 -29.51657104 4.77958727
-31.40531540 -29.34597969 4.37333870
-30.79590225 -29.97610855 0.35807693
-30.60853386 -30.16984558 2.07992840
-31.63384056 -29.10968781 3.57640481
-31.00450897 -29.76041031 2.59833384
-33.68372726 -26.72334099 7.78585911
-33.58958435 -26.83469391 7.33659697
-32.50710297 -28.11506271 9.01847553
-32.87818527 -27.67613983 6.81970596
-32.79288483 -27.77703857 5.28472042
-33.49859619 -26.94231415 9.68255901
-33.72092056 -26.67934990 3.53033614
-33.36856079 -27.09612083 9.18457031
-32.63325119 -27.96585274 0.86489868
-32.71253204 -27.87207603 4.92235565
-32.97910309 -27.55677795 1.94519532
-32.32394791 -28.33169365 1.37690127
-32.24335480 -28.42702675 1.16804051
-32.37873077 -28.26690483 3.19339967
-32.28978348 -28.37210846 3.17141390
-34.85730743 -25.14147377 6.43456364
-34.31942368 -25.87149429 8.69569778
-35.30182266 -24.53817558 7.41888857
-35.16997147 -24.71712685 8.63939953
-35.28549957 -24.56032944 4.54377365
-34.89538574 -25.08979607 8.42128754
-34.36385345 -25.81119156 7.41333866
-34.95858765 -25.00401688 8.63218498
-34.83892441 -25.16642189 1.25725043
-35.15712357 -24.73455811 1.40601969
-33.75975800 -26.63107491 4.01349449
-34.66641998 -25.40055084 3.04512835
-33.82017517 -26.54907608 5.23956490
-33.87447357 -26.47538185 4.11477089
-34.59061050 -25.50343704 0.27383748
-36.65776443 -22.44533730 4.48858881
-36.66766357 -22.42983437 7.98381853
-36.59407043 -22.54511833 4.11398220
-36.06453323 -23.37462234 8.05921936
-36.58566666 -22.55828094 9.57986736
-36.01444626 -23.45308304 9.11778831
-36.90142822 -22.06364822 4.96983099
-36.78550339 -22.24524307 0.46051741
-35.53054428 -24.21110725 7.66838360
-36.15890121 -23.22679520 1.87682247
-35.66445160 -24.00134087 0.42476577
-35.99876022 -23.47765160 3.64567494
-35.98385620 -23.50100136 1.68258679
-35.72303009 -23.90958405 1.10380185
-37.56124878 -20.88438225 6.94887400
-38.25209427 -19.62374878 1.47872257
-38.30784225 -19.52202606 2.25321245
-38.09930420 -19.90255928 7.80292702
-37.61316299 -20.78964996 7.96691942
-38.07915115 -19.93932915 3.93354273
-37.76231766 -20.51747894 6.10802698
-37.60268402 -20.80877304 0.87698925
-37.68083954 -20.66615677 1.25931990
-38.04513550 -20.00140190 1.91070747
-37.30935287 -21.34403419 6.68611526
-37.25848007 -21.43687057 2.97353482
-37.33901215 -21.28990936 2.22791243
-37.88494873 -20.29370880 0.11220551
-39.51901627 -16.93527412 3.28261685
-39.45959091 -17.06333160 2.32366753
-39.19330215 -17.63717079 3.32012320
-39.38359070 -17.22711372 5.54307795
-38.87649155 -18.31988525 9.29472637
-38.67635345 -18.75117302 8.80126381
-38.99882507 -18.05626106 9.04284859
-38.74359894 -18.60625267 6.21942043
-38.40763855 -19.33023071 0.41159600
-39.54329681 -16.88295364 0.06377456
-38.72776794 -18.64037704 5.59976387
-39.19381714 -17.63606262 2.08750796
-38.89933777 -18.27064514 3.28509951
-38.61403275 -18.88546753 5.24903822
-38.57379532 -18.97217369 0.62213314
-40.52323151 -14.35831833 4.64992762
-40.20984650 -15.17200279 7.22282505
-39.93402481 -15.88815880 7.68410969
-40.51540756 -14.37863350 7.45741177
-40.44226456 -14.56854630 2.17839599
-40.37908173 -14.73260021 6.78690338
-40.25225067 -15.06190872 3.64038444
-39.94844437 -15.85072422 2.03701043
-39.74917984 -16.36810112 8.07943249
-39.67150497 -16.56978416 5.83297729
-39.88982010 -16.00293732 5.43027449
-39.59632492 -16.76497841 1.27442884
-39.70032120 -16.49495697 8.74361801
-39.73675919 -16.40035057 1.86230993
-39.75138855 -16.36236000 8.19447422
-41.75111389 -10.18992615 6.76884127
-41.54298019 -11.06329727 7.11668205
-41.53963852 -11.07732105 2.44528484
-41.81647110 -9.91566563 8.14752388
-41.57023239 -10.94892979 7.55879116
-41.61571121 -10.75809383 2.65302920
-41.82114792 -9.89603996 6.65303516
-40.87487411 -13.28591347 7.80710125
-40.89773178 -13.21223450 8.80991077
-41.20713425 -12.21480751 6.25094700
-41.33551788 -11.80094433 6.66048527
-41.43813705 -11.47013092 7.88309240
-41.14604187 -12.41175938 6.98857307
-41.30092239 -11.91246700 7.40342999
-41.22454071 -12.15869617 0.84509182
-40.67058563 -13.94447422 4.48387909
-40.79444885 -13.54518414 7.05316544
-41.22775650 -12.14833355 1.69774151
-40.78534317 -13.57452774 2.82036042
-40.86203003 -13.32732677 0.15050468
-40.62485504 -14.09190369 5.29098558
-41.88790894 -9.61589527 2.55179667
-41.96376038 -9.29761410 0.74708575
-41.74208069 -10.22782230 4.02847385
-41.93771362 -9.40692139 2.20134044
-41.96523666 -9.29141617 5.86775303
-42.12769699 -8.60971069 0.50457877
-42.09320068 -8.75445843 3.86748600
-42.53624344 -6.20614862 8.31247520
-42.57186508 -5.99496841 2.16462374
-42.21789169 -8.09345627 9.17132187
-42.59566498 -5.85386896 3.64139867
-42.49682617 -6.43981075 6.23139429
-42.61088181 -5.76366520 7.42973423
-42.53871536 -6.19147587 9.25559711
-42.31300354 -7.52960396 0.62669456
-42.58250427 -5.93190336 0.26242802
-42.56491470 -6.03615475 0.68291807
-42.33120728 -7.42167044 2.83129311
-42.54805756 -6.13610649 1.00169563
-42.31913757 -7.49323654 4.64668417
-42.21575546 -8.10610867 2.41233683
-42.89895630 -2.92199612 9.02261925
-42.72388458 -4.66223907 8.55902100
-42.88206100 -3.08992839 4.35219002
-42.81209946 -3.78538489 8.87174129
-42.90163422 -2.89535761 3.33725071
-42.74695969 -4.43286133 9.64195728
-42.64494324 -5.44695473 9.32433510
-42.65724945 -5.32462215 7.40397072
-42.66870117 -5.21079588 1.75540316
-42.71753693 -4.72534561 1.63599205
-42.64015961 -5.49448633 3.62175822
-42.73173141 -4.58424234 2.95823765
-42.73682785 -4.53356552 3.38307524
-42.62050247 -5.68990469 2.06742811
-42.97845078 -0.64453179 5.64009047
-42.95586395 -1.32014358 4.88351297
-42.95673752 -1.29404390 7.66427612
-42.98516464 -0.44371107 8.11116314
-42.99554825 -0.13311300 6.17064619
-42.98561096 -0.43035027 5.99140120
-42.95137787 -1.45428371 7.69002342
-42.97302246 -0.80692875 3.76713371
-42.95071030 -1.47420549 0.89691532
-42.92007065 -2.39073682 7.84518719
-42.93413544 -1.97005105 1.93153727
-42.95303726 -1.40471637 3.43009710
-42.92583466 -2.21827173 0.88571274
-42.90449142 -2.85669065 6.54680443
-42.94084167 -1.76940227 3.37026882
-35.96178436 1.04563379 3.45892644
-35.96279144 1.01803732 3.77796292
-35.97883606 0.57911915 5.52776575
-35.92213058 2.13065290 0.74984658
-35.98699188 0.35593149 7.66845226
-35.98195648 0.49369478 4.05194283
-35.98602676 0.38238654 6.70353699
-35.94090652 1.61696303 9.27726746
-35.94638062 1.46712053 9.52062893
-35.90798950 2.51763177 3.45297432
-35.91931915 2.20763516 4.60396004
-35.94523239 1.49851382 6.15345860
-35.90882111 2.49481320 3.91579318
-35.94036484 1.63175642 5.62743187
-35.61759186 5.23043013 0.80647254
-35.69422913 4.53392506 6.43782711
-35.79649353 3.60452986 8.84834003
-35.73133850 4.19667768 5.83768177
-35.70502853 4.43580246 6.39315176
-35.81809998 3.40816498 9.63892174
-35.64334488 4.99639130 0.77098107
-35.88200760 2.82736111 7.59350252
-35.78860092 3.67625117 4.82009649
-35.89663696 2.69436455 8.01460171
-35.86978531 2.93846178 4.26930809
-35.83526611 3.25216746 6.10196543
-35.79566956 3.61200929 1.46473241
-35.59965134 5.33209324 6.86842060
-35.57202911 5.48164272 8.51788807
-35.50843430 5.82594585 6.58117580
-35.21149445 7.43356228 0.34071597
-35.45810699 6.09841585 4.27939367
-35.42594910 6.27251816 2.55589390
-35.33138275 6.78448486 6.28568745
-35.43388367 6.22955465 7.32881260
-35.53422928 5.68628693 8.39706707
-35.38731766 6.48165607 6.04988241
-35.51579666 5.78608847 9.58000946
-35.24025345 7.27785254 6.27012300
-34.81552887 9.06375694 3.22012377
-34.95492172 8.53058052 4.18603277
-34.89048386 8.77704620 4.91378784
-34.84497833 8.95110607 3.37153149
-34.72260666 9.41917896 2.46746516
-35.10153580 7.96976137 9.31255150
-35.12692261 7.87265968 3.56646585
-34.73890305 9.35684681 8.50586319
-34.48009491 10.34681225 6.68159723
-34.87834549 8.82348251 8.82966328
-34.75318527 9.30222034 6.98334169
-34.82203293 9.03887653 5.57752609
-35.09827042 7.98226452 9.67634010
-34.12544632 11.39215469 4.42357016
-34.46863556 10.38618088 2.92934322
-34.23541641 11.06979752 4.67281675
-33.79810333 12.35167694 0.79515010
-34.04199600 11.63676548 1.97861135
-34.18039703 11.23107529 4.94099569
-34.10388565 11.45534992 3.97398949
-33.92015457 11.99391174 4.27740860
-33.67229080 12.72045803 1.53466558
-33.90122986 12.04938030 6.51528263
-33.65174484 12.78068161 6.53065348
-34.20954895 11.14563084 8.05014133
-33.82292938 12.27890396 4.96744776
-33.83791351 12.23498249 6.24833298
-33.57342148 12.98069859 0.82213807
-33.43534470 13.30561829 3.89311886
-33.25078583 13.73992062 5.38076401
-33.22494125 13.80074215 3.03784347
-33.57880020 12.96803856 2.28119636
-33.28644562 13.65601444 5.17466927
-32.72893143 14.96794796 3.09705019
-32.62181854 15.22000885 4.64659119
-33.00346375 14.32192135 9.89934158
-32.71931076 14.99059105 7.49045992
-33.44079971 13.29278374 8.92405415
-33.17391586 13.92081833 9.26642799
-32.91559601 14.52869701 5.28763580
-32.27360916 15.90776539 3.77984309
-32.03937149 16.36335754 1.50036550
-32.38331604 15.69438553 1.45165670
-31.61729431 17.18430328 0.92051733
-32.39274979 15.67603016 5.33613253
-32.17317963 16.10309982 0.25073922
-31.62977409 17.16002655 4.11447334
-32.13497162 16.17741585 8.62676430
-31.78297615 16.86204910 8.01025295
-31.66222763 17.09690475 8.87688446
-31.42754555 17.55336380 1.47908938
-31.77876091 16.87024689 6.43850470
-31.80623627 16.81680870 9.30659103
-31.38992500 17.62535477 2.70406127
-30.86075401 18.49243736 2.42170072
-30.71034050 18.73889923 2.84699583
-30.95311356 18.34109879 3.71247745
-31.35970879 17.67486763 8.62112617
-31.09034348 18.11623955 3.28024268
-29.92598152 20.00053406 9.69412518
-29.78278542 20.20068550 4.70229149
-29.70637131 20.30749321 6.89092255
-28.96300316 21.34653091 7.71516132
-29.59694862 20.46043777 7.39133024
-29.93990326 19.98107529 3.65388656
-29.38865852 20.75157547 8.54983521
-30.75493050 18.66583443 5.52551126
-30.42957497 19.19894981 5.75259972
-30.87884331 18.46279526 6.62131739
-30.91385841 18.40542221 9.39491844
-30.34877586 19.33134460 3.42412829
-30.50577545 19.07409286 3.52114964
-30.27948761 19.44487762 7.98902988
-28.95876694 21.35245323 1.45175171
-29.44547653 20.67215729 1.29134190
-28.68924332 21.72917747 5.59024239
-28.51632500 21.97087097 9.31372261
-29.48224449 20.62076378 2.26268721
-29.11341286 21.13629723 5.77082872
-28.80498505 21.56739998 2.00211358
-28.14294052 22.42394257 3.80875301
-27.60599136 23.06915474 4.44327021
-27.96554947 22.63710022 2.69503880
-27.98445511 22.61438370 4.99556065
-27.55164337 23.13446236 3.19568539
-27.36727715 23.35599899 1.93505859
-27.79734993 22.83921242 3.10173416
-26.81603050 24.01839256 6.21174669
-26.83955193 23.99012756 8.57391262
-27.75123215 22.89463043 6.82077694
-27.62120628 23.05087090 9.64847183
-27.58091354 23.09928894 5.05586386
-27.52764320 23.16329956 8.71331787
-27.88388634 22.73523140 6.82825947
-25.54039001 25.34219933 0.96958691
-26.47239876 24.37550735 0.82414514
-26.45599556 24.39251900 3.93753147
-26.73279190 24.10542488 6.99774313
-26.03782845 24.82625008 1.97657120
-25.88447762 24.98530769 2.42647696
-25.99532318 24.87033844 1.24128723
-24.76077843 26.11892700 9.17409515
-24.49643135 26.35578346 5.02065182
-24.85542679 26.03412056 5.76058340
-24.23362160 26.59126091 5.49259377
-24.45582581 26.39216423 9.14758396
-24.80121613 26.08269310 6.51127768
-23.35958099 27.37440491 9.54171276
-25.93137360 24.93666649 5.65974712
-25.57911873 25.30202866 8.08399963
-25.30135155 25.59013367 9.51680183
-25.27593613 25.61649513 6.01045036
-25.38432503 25.50407219 6.87672997
-25.72722435 25.14841270 8.44925880
-25.45699883 25.42869377 3.03891563
-23.78038216 26.99736404 4.27657175
-23.51038170 27.23928642 6.78228331
-23.77547836 27.00175858 1.98938155
-24.06917763 26.73860168 4.35110378
-23.18727303 27.52879333 9.12281227
-23.74979591 27.02477074 5.92631578
-23.94147110 26.85302925 2.02239394
-21.34845924 28.96837234 1.33678377
-22.77155113 27.86949730 7.11188221
-22.52867889 28.05703735 5.78533697
-21.97871017 28.48170853 2.37926006
-21.92014122 28.52693367 1.76398969
-22.21375275 28.30021667 4.27449179
-19.91885185 29.95859528 6.73909473
-20.41852951 29.62800980 8.39567566
-20.37830734 29.65462112 5.07584476
-20.78968239 29.38245773 4.74755812
-20.88164902 29.32161522 3.43188548
-20.74679947 29.41082954 5.23706579
-20.16750717 29.79408646 6.72169209
-20.99961281 29.23774338 5.69282150
-21.41572571 28.91643143 5.91693163
-21.45878983 28.88317871 4.37502289
-22.66393661 27.95259476 9.52466011
-21.55788994 28.80665588 8.23901558
-21.15053368 29.12120628 4.58122206
-19.36306000 30.32630348 1.52857554
-19.44717026 30.27065659 4.58138561
-19.42043304 30.28834534 0.83509558
-19.29199791 30.37331772 6.82278109
-19.79106522 30.04313850 3.94744730
-18.95020866 30.59944344 6.24674416
-19.21380615 30.42504883 2.78702235
-17.77096176 31.28097725 1.03317523
-18.48946381 30.87773323 4.09670258
-18.57870674 30.82764816 0.65782815
-18.19011497 31.04573631 7.37924385
-18.29553413 30.98657227 1.48113346
-18.47628212 30.88513184 2.13426042
-18.16241837 31.06127930 4.83375883
-16.63025284 31.92117119 6.14517498
-16.79096222 31.83097649 6.20701790
-17.28413963 31.55419350 7.79628897
-17.52962303 31.41642189 9.01510334
-17.06851959 31.67520523 4.33534527
-18.16266823 31.06113815 9.96758461
-16.06371689 32.20242691 5.32683182
-15.81113434 32.32083130 5.20707369
-15.93367100 32.26338959 5.46757650
-15.19776344 32.60836792 1.75079954
-15.34152222 32.54097366 4.61062384
-15.91307068 32.27304459 6.08368397
-15.18246078 32.61553955 4.59777308
-13.04777241 33.52716827 8.02660561
-13.36341000 33.40644455 9.54309368
-12.46739674 33.74914169 9.03919029
-12.57338524 33.70860291 8.57559013
-13.96452618 33.17654037 5.95512724
-12.54114056 33.72093582 8.52271748
-12.36810017 33.78712082 9.66182423
-14.38656616 32.98863983 5.66410732
-14.81862926 32.78609848 5.77006817
-14.94055939 32.72893906 6.18203735
-15.27233124 32.57341003 7.04848576
-14.23323536 33.06052017 1.49195135
-15.24014664 32.58849716 5.77133417
-14.68700504 32.84780121 3.74054050
-11.64956665 34.06193542 6.01111460
-13.28891468 33.43493652 0.43231696
-13.38663673 33.39756393 0.77081084
-13.25884724 33.44643784 1.05319607
-12.03935337 33.91285324 6.74907923
-12.70681381 33.65757370 3.69572759
-12.25430679 33.83064270 1.19655585
-10.05847359 34.54273605 9.66246510
-10.47335052 34.41791916 6.41595459
-10.92878723 34.28089905 7.94131374
-10.69392681 34.35155869 6.14836884
-10.98246861 34.26474762 4.22650480
-11.26363373 34.18015671 2.63860655
-10.44365025 34.42685318 0.33225986
-9.61641598 34.67573166 0.73590863
-9.68887806 34.65393066 1.24714923
-9.90991688 34.58743286 0.95281750
-9.40300846 34.73993683 5.46932602
-9.41033554 34.73773193 2.01703978
-10.57828808 34.38634872 0.22103073
-8.87783623 34.88014984 9.80697155
-7.70740461 35.14087677 5.72784472
-7.12143660 35.27140427 9.96213818
-8.91675091 34.87148285 9.43834305
-7.02898359 35.29199982 4.79282665
-6.64007044 35.37863541 6.56073427
-8.29914284 35.00905991 3.29640627
-9.08142090 34.83480072 2.27279997
-6.58937979 35.38992691 0.07755192
-7.91968918 35.09358597 0.53140843
-9.02108765 34.84823990 6.26932669
-8.12194443 35.04853058 0.16391248
-3.05432773 35.84866333 5.87039804
-2.59292722 35.88243484 5.85318804
-3.53357959 35.81358719 4.48009396
-3.92662644 35.78482056 4.75982523
-3.28725839 35.83161545 9.12903404
-2.68551040 35.87565994 7.58346891
-5.35889769 35.57482910 5.65929413
-4.45453644 35.70792389 8.73232269
-5.84214401 35.50371170 7.94312906
-5.01452446 35.62551117 7.06190062
-4.21183586 35.74364090 5.51863050
-5.93947983 35.48938370 8.68219662
-5.00616550 35.62673950 7.45229626
-5.87437105 35.49897003 0.06381316
-6.32786703 35.43222427 5.55418062
-5.11318111 35.61099243 4.48705721
-5.33984423 35.57763290 3.07186460
-5.34771490 35.57647324 1.63637817
-4.70477819 35.67109299 2.84593844
-6.53167009 35.40223312 7.62180376
-1.28484678 35.97598267 8.32426929
0.67670953 35.97598267 9.47219276
-0.31923234 35.97598267 3.90468931
-0.98973382 35.97598267 3.51755762
-0.00500727 35.97598267 7.59912825
0.44179821 35.97598267 8.81325722
-0.26406515 35.97598267 6.68274641
-1.89113307 35.93379974 4.22529125
-1.95532775 35.92910004 2.20812917
-3.29199123 35.83126831 1.36149383
-1.48605907 35.96344757 2.73850346
-1.69372916 35.94824982 3.18077922
-2.31613398 35.90269470 1.54591012
1.02618444 35.97598267 3.37315655
1.04303694 35.97598267 6.97093725
0.21506190 35.97598267 2.58455014
0.09487164 35.97598267 4.90377808
0.33567232 35.97598267 2.86703539
1.25144148 35.97598267 8.90433884
4.46055794 35.70703506 5.68047237
4.87047768 35.64670944 5.73362637
4.45466280 35.70790482 2.07889223
4.57733011 35.68984985 4.29226303
6.34189844 35.43016052 9.73913002
4.01045752 35.77327728 2.29336452
3.71506047 35.80030441 3.43860412
2.79508710 35.86763763 8.84035683
3.77923608 35.79560852 2.65243244
3.00309658 35.85241318 7.35125399
2.29851818 35.90398407 9.88963032
3.78855658 35.79492569 4.57466984
3.32892799 35.82856750 6.56589699
1.36410725 35.97237396 8.39652824
2.45192051 35.89275360 5.39874840
2.91759109 35.85867310 2.64115143
1.46810603 35.96476364 0.85704958
1.88680983 35.93411636 2.95893192
1.76056075 35.94335556 3.26624370
5.72447538 35.52102661 4.47044706
6.15539169 35.45761108 6.43423796
5.80228043 35.50957489 1.87329757
5.57717466 35.54270554 0.64147568
6.53351450 35.40196228 1.28256810
5.79615307 35.51047897 0.98049462
6.08638144 35.46776581 6.70048475
9.08627510 34.83372116 5.31750107
7.47458553 35.19273758 7.49167252
9.02031040 34.84841537 7.21699095
8.38423157 34.99010468 7.44308376
7.74632263 35.13220596 7.07959223
8.02961063 35.06909943 9.63412666
6.84475851 35.33303833 7.64468098
6.91547441 35.31728363 8.48476505
7.73228121 35.13533401 2.46188712
8.33653831 35.00073242 2.90643358
6.64632702 35.37724304 4.72058868
7.71183062 35.13988876 0.52114481
7.88441133 35.10144424 4.43495131
11.43142033 34.12967682 3.04142642
11.26432800 34.17994690 9.81588268
11.46823788 34.11860275 5.08926105
10.50393200 34.40871811 4.47900057
10.74186802 34.33713531 7.60186815
11.29368877 34.17111588 4.94949389
11.57547188 34.08633804 7.46104097
9.83611107 34.60963440 3.45114732
9.48927212 34.71398544 3.41226792
10.29584312 34.47132111 0.52208596
10.52736664 34.40166855 1.56785619
9.84289169 34.60759735 3.14012742
9.72679424 34.64252472 3.72399902
15.41902161 32.50464630 8.14660358
14.15972233 33.09498215 0.66723877
15.35917091 32.53270340 9.76422119
15.08656406 32.66049576 5.19401169
14.68707561 32.84776688 9.03207588
14.14555168 33.10162354 2.14933538
13.58901787 33.32015991 6.64570379
13.86618805 33.21414948 7.52252865
13.96675682 33.17568588 6.93100452
13.86126423 33.21603394 3.57505107
13.48038578 33.36170578 2.65694046
12.67454147 33.66991425 9.33204651
12.76886940 33.63383865 3.81623077
11.85154915 33.98468018 4.51977444
11.78580666 34.00983047 1.29749048
11.81808949 33.99748230 6.79401922
11.88419724 33.97219467 4.99062872
13.05021000 33.52623749 1.69561696
12.38591766 33.78030396 4.84784222
15.93850327 32.26112366 5.90415907
16.20582962 32.13580322 5.66740942
15.41876984 32.50476456 2.24925780
15.82581711 32.31394958 5.67239952
15.76899815 32.34058380 0.66486037
15.62633228 32.40746307 5.27832747
17.52950668 31.41648483 2.72241592
16.49421692 31.99751854 2.72696233
17.36375999 31.50950623 1.29800344
17.27774429 31.55778122 1.65443540
17.48709297 31.44028854 3.81299949
16.98118019 31.72422218 0.04299216
16.75822067 31.84935188 8.65496635
17.73164940 31.30303955 6.46601868
17.81845284 31.25432205 8.65919495
18.01146317 31.14599991 3.76796627
18.59259224 30.81985474 8.93767166
17.94698715 31.18218613 9.53602600
18.22591972 31.02564049 5.31470299
19.46414566 30.25942612 4.07863903
19.45152092 30.26777840 2.37578011
18.89381409 30.63675308 3.90121889
19.93814850 29.94582748 2.69537234
19.49147034 30.24134827 0.28935593
19.40738678 30.29697609 5.87119770
20.55082512 29.54048538 9.80915070
20.11072922 29.83164978 6.82044458
19.70187187 30.10214806 7.68389368
19.67745209 30.11830330 9.19709396
20.76890182 29.39620590 1.63298059
20.43586540 29.61654282 3.14978433
21.26881599 29.02987099 0.10285310
22.09987450 28.38814926 2.60025382
21.94304848 28.50924683 4.92330122
21.74513435 28.66206932 4.49205971
21.19452667 29.08723640 3.13872480
21.18195915 29.09693909 8.86108303
21.41918373 28.91376114 4.51379919
24.50622559 26.34700775 8.81142902
23.45170593 27.29186058 7.59382057
23.22242165 27.49729919 2.11001492
24.34098816 26.49505997 8.43593979
23.42232704 27.31818390 3.09066486
23.76670265 27.00962257 9.24016380
22.14733505 28.35150146 6.07750177
22.61631393 27.98936844 5.14397049
21.40723419 28.92298698 9.09147930
22.97069550 27.71572304 8.29835701
23.01306534 27.68300629 3.45802832
21.69528198 28.70056534 8.93725204
21.99502563 28.46911049 9.96686077
23.78113937 26.99668694 2.67348480
24.84166718 26.04644966 4.67944717
24.81533241 26.07004547 2.02976179
23.29162216 27.43529510 0.22714965
24.93839264 25.95978165 6.44245625
23.98575020 26.81335449 2.71608257
24.89827538 25.99572754 8.27962971
25.61684418 25.26289940 3.69245005
26.49843788 24.34849930 0.78710473
25.70524979 25.17120552 5.51074076
25.34293556 25.54700089 6.98981285
25.25478745 25.63843346 1.79110587
25.83427620 25.03737640 2.85892844
26.70980835 24.12926292 4.52284622
25.60155296 25.27876282 6.87213373
25.79032326 25.08296585 5.75923300
25.69657707 25.18020058 6.51728392
26.54213142 24.30317879 5.61297274
25.75863457 25.11583328 6.00026464
27.44804382 23.25894737 2.87902737
27.14038658 23.62863922 6.55391979
27.70211029 22.95365715 0.71923006
27.94976807 22.65606499 0.16033855
27.76493645 22.87816238 1.24779618
27.74083519 22.90712166 4.08256960
27.89350700 22.72366905 5.77029228
27.74965477 22.89652634 8.54215050
28.47619247 22.02350044 7.84121943
27.92860031 22.68150139 4.62123346
28.49242592 22.00399208 3.15441251
28.31631279 22.21561623 8.66860104
28.53715324 21.94176102 6.49039841
28.51437950 21.97359276 5.02907467
29.00688362 21.28519630 5.04462528
28.61141396 21.83796310 4.04890633
28.58781052 21.87095451 0.32990757
28.76204491 21.62741852 7.01798868
30.63858032 18.85648155 7.89715195
30.48817825 19.10292435 9.49166489
30.12757301 19.69379807 1.90863466
30.80933380 18.57669258 6.44854784
30.11896896 19.70789719 8.12649441
30.13678169 19.67870903 1.71094084
30.95639038 18.33572960 8.58643246
29.91901779 20.01026726 0.76397014
29.28278732 20.89955330 5.29147577
29.57412148 20.49234390 5.20091534
29.48252678 20.62036896 8.06483650
29.94606018 19.97246742 9.82045937
29.44092941 20.67851257 8.30885601
29.61613083 20.43362617 9.57114601
30.73906708 18.69182777 1.28952634
31.16651535 17.99142838 0.69129813
30.19738388 19.57940865 0.95839626
31.35476685 17.68296432 4.65790558
31.11131096 18.08188438 7.68833876
31.30303574 17.76773071 1.57896459
30.85276794 18.50551987 4.13883257
31.45939636 17.49141312 6.75002337
31.90574455 16.62326431 4.32743931
31.51475143 17.38375092 8.49181938
31.73961449 16.94639015 1.95525992
32.25524521 15.94348145 0.26370361
31.81374168 16.80220985 2.71273661
31.99530983 16.44905853 4.69290161
32.03815460 16.36572456 6.92008495
32.32931519 15.79941750 2.24921179
32.53378296 15.40172577 8.18632030
32.40590668 15.65043926 6.08899450
32.01745224 16.40599060 9.27786064
32.46405411 15.53734589 3.21007156
32.39559555 15.67049789 5.27034426
33.09797287 14.09952450 1.20002937
33.17096329 13.92776299 2.82738686
32.85353088 14.67475319 1.64923918
33.12857819 14.02750683 0.89497077
33.18677139 13.89056587 2.59490728
32.83676529 14.71420002 1.18484032
32.72240829 14.98329830 6.62924814
32.87357330 14.62758160 7.92322588
33.17466736 13.91904640 5.34856844
33.07394791 14.15605927 5.49885941
33.47005844 13.22393227 3.12119436
32.91341019 14.53383541 9.43751717
33.53026581 13.08225250 1.22227156
33.61251831 12.88869762 3.34395957
34.28736496 10.91753006 1.55926096
33.90227127 12.04633522 0.93477964
33.78379059 12.39363861 3.64981794
34.10264587 11.45899391 3.04798245
33.80115509 12.34272766 2.19884777
33.83479309 12.24413776 6.01585293
33.66391754 12.74500275 9.83305645
34.22560501 11.09856510 9.64713383
33.99708557 11.76841354 8.42256069
34.40305328 10.57841396 5.81288290
34.12853622 11.38309193 5.51561260
34.36516571 10.68947697 8.17140961
34.50898743 10.23629284 6.13943481
34.53660202 10.13067341 0.67846411
34.48024368 10.34624100 4.61942053
34.75515366 9.29469872 0.03522031
35.00498962 8.33905411 0.30987179
34.58201981 9.95694733 6.82378864
34.80027008 9.12210846 0.83797568
35.31280136 6.88509035 5.41718483
35.48144913 5.97203636 8.32686806
35.35771942 6.64191103 4.92512417
35.26815796 7.12677670 5.54345894
35.33084106 6.78742361 5.87237835
35.56156921 5.53828192 9.05834961
35.02768707 8.25224304 5.65229797
34.98418427 8.41864872 6.69536400
35.01026154 8.31890011 3.06113768
34.96760941 8.48204136 4.30463982
34.68896103 9.54787827 7.33651686
34.83221054 8.99994469 5.92060184
34.98902512 8.40012264 7.47523785
35.46047592 6.08558273 6.40574074
35.50959015 5.81969309 4.76533890
35.49118042 5.91934776 4.56373644
35.32064438 6.84262657 1.25187385
35.36886978 6.58154440 2.94187880
35.24134445 7.27195501 1.57879651
35.34033203 6.73603678 1.57880843
35.91206360 2.40611005 1.57510769
35.95588684 1.20701432 7.86017132
35.93022919 1.90904117 7.46168041
35.98125839 0.51278949 9.56555653
35.90465164 2.60898280 0.55935138
35.96386337 0.98877275 7.55209160
35.90433884 2.61749005 6.20064402
35.75508499 3.98086977 7.14450169
35.79650879 3.60437942 5.98224640
35.89869308 2.67570114 8.50427151
35.78468323 3.71186352 6.02053404
35.81494141 3.43687010 7.38530016
35.89400482 2.71831703 4.46286011
35.88011932 2.84450030 7.36661053
35.81290436 3.45539141 2.20204377
35.76083374 3.92861462 1.99775553
35.83644867 3.24141526 2.30939579
35.84804535 3.13600326 0.10751970
35.74055481 4.11292028 4.35239792
35.86573410 2.97524261 0.20314932
35.67461777 4.71216488 5.80089378
35.97989655 0.55002695 6.66578484
35.99059296 0.25735834 0.72023517
35.98708344 0.35340774 4.41734791
35.97452164 0.69716740 1.64456606
35.98623276 0.37673217 1.81502330
35.93048477 1.90213621 1.81954741
-29.31407356 -20.54699707 10.00000000
-23.69064140 -26.59106827 10.00000000
-21.92547798 -27.83079147 10.00000000
-22.24377060 -27.88851929 10.00000000
-25.17397881 -25.12351608 10.00000000
-24.34844780 -25.68345070 10.00000000
-12.19467735 -32.67166519 10.00000000
-12.44914246 -32.97202301 10.00000000
-17.06997299 -30.23171425 10.00000000
-21.06233215 -27.67096329 10.00000000
-10.51478291 -34.21605682 10.00000000
-14.36814499 -31.23693848 10.00000000
-15.63927650 -30.44168472 10.00000000
-8.61217499 -34.51040649 10.00000000
-34.73547745 -8.97759151 10.00000000
-33.52530670 -12.80590343 10.00000000
-34.03723907 -9.94569302 10.00000000
-35.08611679 -5.77224874 10.00000000
-33.58444595 -11.02880669 10.00000000
-30.11462784 -18.89839554 10.00000000
-29.27555847 -19.36691666 10.00000000
-32.16657257 -14.10007477 10.00000000
-33.68951797 -9.94712543 10.00000000
-31.63809395 -15.34799957 10.00000000
-33.57679367 -9.26588726 10.00000000
-33.19070435 -11.61545563 10.00000000
-31.25913429 -16.51180649 10.00000000
-30.94348335 -17.25357056 10.00000000
-33.37256622 -10.68122005 10.00000000
-32.07185745 -10.97984219 10.00000000
-35.52570343 1.86578608 10.00000000
-34.76697540 -0.54060078 10.00000000
-32.65288925 -4.62283468 10.00000000
-33.76955414 1.37873721 10.00000000
-32.59214020 -2.06398296 10.00000000
-33.34378433 -0.62508523 10.00000000
-34.98821259 -4.55855846 10.00000000
-35.00587082 3.93047667 10.00000000
-30.43937302 -13.94991875 10.00000000
-33.18832016 -1.43863630 10.00000000
-33.13700104 -3.95462966 10.00000000
-34.56476974 -5.37582397 10.00000000
-35.05545425 4.49304676 10.00000000
-28.54452324 -18.63745499 10.00000000
-34.96819687 2.84758496 10.00000000
-32.69314957 -4.85938168 10.00000000
-34.87122345 1.29866409 10.00000000
-29.56841087 -15.07774162 10.00000000
-34.53244400 2.96581769 10.00000000
-34.86846542 0.09048128 10.00000000
-35.17943954 -4.09863186 10.00000000
-31.26647568 -11.01272011 10.00000000
-34.96097946 -0.27158785 10.00000000
-33.72794724 -4.16068888 10.00000000
-30.42670631 -12.30918026 10.00000000
-29.54118538 -16.83351135 10.00000000
-22.92515564 -20.70836639 10.00000000
-15.71640968 -22.72196007 10.00000000
-29.33452034 -1.42847073 10.00000000
-30.95509720 -3.46001339 10.00000000
-24.35977745 -12.87705994 10.00000000
-16.04308128 -27.16565704 10.00000000
-26.08724213 -15.44503403 10.00000000
-19.28585434 -26.77970505 10.00000000
-23.33500862 -20.12630463 10.00000000
-14.02046394 -26.84507751 10.00000000
-15.19118881 -23.94025803 10.00000000
-13.40774155 -26.12119484 10.00000000
-14.22416878 -28.32974434 10.00000000
-16.81504059 -25.56144333 10.00000000
-22.51123238 -17.55469322 10.00000000
-29.52510452 -11.47442245 10.00000000
-16.58735847 -26.11489487 10.00000000
-22.31139755 -17.67248154 10.00000000
-30.20792198 -2.96904564 10.00000000
-30.28995323 -5.17736816 10.00000000
-20.33117294 -25.66843033 10.00000000
-19.70644569 -20.79671478 10.00000000
-27.40752983 -11.11495686 10.00000000
-15.18350315 -23.89286232 10.00000000
-18.46977997 -17.76188660 10.00000000
-22.60644531 -22.09059143 10.00000000
-21.12798691 -13.37324715 10.00000000
-14.39410400 -26.92511559 10.00000000
-33.98302460 3.86914325 10.00000000
-28.31219292 -3.11015821 10.00000000
-26.89159393 -15.38935471 10.00000000
-22.43840790 -16.49261093 10.00000000
-26.61949539 -19.55028534 10.00000000
-27.47957230 -5.52649450 10.00000000
-25.40053940 -18.20154572 10.00000000
-16.41169739 -28.52961159 10.00000000
-26.84167480 -15.13159561 10.00000000
-28.69678879 -5.70897293 10.00000000
-22.14107132 -15.50869274 10.00000000
-23.51446342 -12.07369232 10.00000000
-31.58307648 -1.16491127 10.00000000
-31.29724693 -5.51981258 10.00000000
-24.25886345 -12.40744114 10.00000000
-28.57845688 -8.02376652 10.00000000
-29.31173706 -4.42667866 10.00000000
-22.72837067 -19.24363899 10.00000000
-15.34789371 -26.49620628 10.00000000
-28.89188004 -6.65568447 10.00000000
-22.31385231 -12.68106365 10.00000000
-32.47627258 3.37188292 10.00000000
-19.45141602 -25.45937729 10.00000000
-24.12213898 -18.37003136 10.00000000
-17.08320618 -23.14470863 10.00000000
-18.09976959 -28.15788078 10.00000000
-15.48859406 -28.94869041 10.00000000
-13.09977436 -31.45836830 10.00000000
-23.98866463 -12.74229527 10.00000000
-22.74925041 -20.11661339 10.00000000
-24.12932205 -16.46533966 10.00000000
-24.11779594 -15.27123260 10.00000000
-29.28063583 -8.72064304 10.00000000
-20.22574997 -25.46864700 10.00000000
-11.34103584 -32.06686783 10.00000000
-17.78188324 -26.79155731 10.00000000
-21.53911972 -24.15732765 10.00000000
-14.52895355 -30.46321297 10.00000000
-26.50118065 -5.39205694 10.00000000
-13.02142429 -30.39892960 10.00000000
-19.83883286 -16.82730865 10.00000000
-29.51283455 -1.83189034 10.00000000
-27.89450836 -19.44305992 10.00000000
-25.88064957 -13.72082138 10.00000000
-21.48142624 -23.84169579 10.00000000
-31.15594101 -0.98771477 10.00000000
-26.48063660 -15.00325775 10.00000000
-22.95038605 -21.50827980 10.00000000
-26.26872635 -15.28786850 10.00000000
-15.60019493 -24.51997566 10.00000000
-18.60499191 -28.16573715 10.00000000
-26.59761810 -14.18612099 10.00000000
-28.89909554 -12.66794777 10.00000000
-25.48938370 -21.06739426 10.00000000
-31.29227448 1.78768849 10.00000000
-29.58012009 -12.05791092 10.00000000
-11.90772915 -29.87398338 10.00000000
-25.54988098 -14.40323448 10.00000000
-30.77427673 -1.16453576 10.00000000
-29.01298332 -15.27983475 10.00000000
-22.28120804 -24.62034988 10.00000000
-11.77432346 -29.63736534 10.00000000
-20.06982613 -20.94018936 10.00000000
-32.02765656 -2.45562696 10.00000000
-10.61146164 -32.96804047 10.00000000
-10.66197014 -29.87279510 10.00000000
-30.48124504 -1.84825087 10.00000000
-22.43807793 -15.74518394 10.00000000
-28.51471519 -4.57097769 10.00000000
-18.43147659 -18.42305946 10.00000000
-15.82941437 -25.19806480 10.00000000
-31.17439270 -1.57260370 10.00000000
-21.25048828 -22.19667816 10.00000000
-19.20570755 -24.97389412 10.00000000
-15.04443550 -25.74514389 10.00000000
-29.82748222 -6.66623878 10.00000000
-15.70538044 -25.94131660 10.00000000
-24.34567642 -9.89264679 10.00000000
-21.91784668 -19.50221443 10.00000000
-29.56190681 -0.77718604 10.00000000
-28.57246399 -6.78924084 10.00000000
-24.97844887 -19.01099014 10.00000000
-26.85293961 -20.86136246 10.00000000
-16.72631073 -25.03795242 10.00000000
-16.61378479 -24.26187897 10.00000000
-10.85220146 -29.65266418 10.00000000
-29.31541824 -2.90023613 10.00000000
-22.90133858 -12.01052094 10.00000000
-25.38035393 -7.27920055 10.00000000
-26.85138321 -10.98674393 10.00000000
-26.38672829 -10.27092171 10.00000000
-30.01643753 -6.35739136 10.00000000
-27.21152306 -7.76974344 10.00000000
-18.50945854 -22.87036514 10.00000000
-24.20372200 -18.06984520 10.00000000
-27.95495605 -5.60315418 10.00000000
-23.33414841 -12.22013187 10.00000000
-10.56908131 -31.07828331 10.00000000
-19.00012207 -21.03227234 10.00000000
-18.52657700 -17.28748703 10.00000000
-26.82448387 -19.34922409 10.00000000
-33.83703613 4.32112455 10.00000000
-23.54281235 -24.89244652 10.00000000
-18.85663795 -17.59796143 10.00000000
-28.54106140 -10.71793556 10.00000000
-25.55327415 -24.57226944 10.00000000
-13.81949520 -27.63919258 10.00000000
-24.16544151 -9.97453117 10.00000000
-23.35380936 -12.59562778 10.00000000
-35.86591339 -0.96559906 10.00000000
-5.00163841 -34.09130859 10.00000000
-4.88429070 -32.48284149 10.00000000
-3.23634529 -33.80043793 10.00000000
-8.45501900 -27.95149040 10.00000000
-23.22658348 -7.31048584 10.00000000
-8.20617676 -28.06602859 10.00000000
-9.19503212 -26.85353661 10.00000000
-12.85532188 -23.29660797 10.00000000
-3.46005535 -33.02526855 10.00000000
-2.05343151 -34.08463287 10.00000000
-8.03553963 -25.90621567 10.00000000
-7.43839455 -27.80934143 10.00000000
-27.56273651 -2.13909578 10.00000000
-1.05036449 -35.22230530 10.00000000
-12.83532143 -21.63425636 10.00000000
-15.25842476 -17.42518806 10.00000000
-26.00632477 -4.36352015 10.00000000
-23.19289780 -7.19211388 10.00000000
-18.15341949 -15.22712421 10.00000000
-29.75241661 0.76325321 10.00000000
-16.04174042 -18.44470978 10.00000000
-11.79586029 -20.66909409 10.00000000
-4.76068878 -33.53279114 10.00000000
-10.01702213 -25.17782402 10.00000000
-14.76001930 -19.96422386 10.00000000
-16.06370735 -16.15392113 10.00000000
-6.04603386 -31.51629066 10.00000000
-18.14729309 -14.83399963 10.00000000
-4.42005730 -33.50055313 10.00000000
-26.23326111 -3.60397434 10.00000000
-16.53569031 -17.61189270 10.00000000
-3.24849606 -30.95161629 10.00000000
-16.51949310 -14.75842094 10.00000000
-18.72194290 -13.01729965 10.00000000
-13.41517067 -18.61293221 10.00000000
-15.16203117 -19.18776512 10.00000000
-10.82811451 -23.16555405 10.00000000
-12.66242599 -20.74108505 10.00000000
-32.18566132 3.80148959 10.00000000
-9.14584160 -24.41546631 10.00000000
-22.85794449 -8.96219635 10.00000000
-23.67822456 -5.96441984 10.00000000
-12.41880322 -20.98731232 10.00000000
-2.34074211 -34.97325897 10.00000000
-4.04502487 -33.28307724 10.00000000
-13.66876221 -21.35716629 10.00000000
-10.94296837 -25.57336044 10.00000000
-12.04332733 -23.13494682 10.00000000
-2.34131432 -35.78872681 10.00000000
-21.60214233 -10.72303391 10.00000000
-7.07959318 -26.26083755 10.00000000
-10.12815380 -23.99864769 10.00000000
-5.24403954 -32.29455948 10.00000000
-25.87882042 -4.66579533 10.00000000
-13.65901947 -19.76780701 10.00000000
-21.77340889 -10.00378799 10.00000000
-35.29499054 6.82652950 10.00000000
-30.33669853 0.66530895 10.00000000
-19.45561790 -14.66983986 10.00000000
-26.84456444 -4.02718353 10.00000000
-6.59302330 -32.73088074 10.00000000
-14.78927708 -21.96891975 10.00000000
-17.61094475 -17.88775444 10.00000000
-19.49436951 -15.18984985 10.00000000
-12.82551765 -25.65383911 10.00000000
-7.52953768 -30.98879433 10.00000000
-18.69261932 -16.82911682 10.00000000
-19.14004326 -14.96723175 10.00000000
-5.54773903 -33.88428497 10.00000000
-15.95070934 -20.00698853 10.00000000
-21.05464935 -12.15306854 10.00000000
-13.30381012 -23.33833694 10.00000000
-13.75043678 -24.05754662 10.00000000
-11.21840286 -27.82932281 10.00000000
-25.60780907 -6.29840660 10.00000000
-7.67992973 -32.15222931 10.00000000
-12.77840614 -25.71442413 10.00000000
-10.14496613 -29.67262077 10.00000000
-17.63755417 -17.33875656 10.00000000
-14.49851990 -21.62158966 10.00000000
-30.33958244 0.70684385 10.00000000
-16.47758675 -18.70290565 10.00000000
5.71272850 -35.40904617 10.00000000
7.77868843 -34.70615005 10.00000000
16.06922722 -32.05621338 10.00000000
-29.93457413 19.61017609 10.00000000
-33.18011856 13.78542137 10.00000000
23.33259964 -26.93066216 10.00000000
22.30209923 -27.29999924 10.00000000
20.01951599 -28.90017319 10.00000000
-23.05941200 27.56775284 10.00000000
-24.21828651 26.44662666 10.00000000
-18.10551643 31.07452965 10.00000000
-22.88258553 27.24414444 10.00000000
31.00437164 -18.21708870 10.00000000
-19.49518204 29.37686157 10.00000000
-16.65985489 31.62845612 10.00000000
-15.09340000 32.21620178 10.00000000
-16.38392067 31.02655792 10.00000000
-15.90385246 31.69527817 10.00000000
33.22256088 -12.90247726 10.00000000
32.82358932 -14.66162109 10.00000000
30.49155998 -17.88283920 10.00000000
33.03592682 -12.83920670 10.00000000
29.86616325 -18.59209061 10.00000000
29.05456161 -20.48811340 10.00000000
30.39836311 -17.11865616 10.00000000
-26.50991440 24.05177689 10.00000000
-16.15128517 29.62942886 10.00000000
-17.51707840 29.09550858 10.00000000
-24.05794334 25.54834938 10.00000000
-21.26287079 26.60546875 10.00000000
-31.53131485 12.53822708 10.00000000
-18.23398781 24.99093056 10.00000000
-13.55364418 29.35075569 10.00000000
-32.52965546 13.77141953 10.00000000
-24.59337044 18.18017769 10.00000000
-26.87741089 17.01400375 10.00000000
-30.82190704 13.16033554 10.00000000
-30.91934967 13.45304012 10.00000000
-27.22068405 16.06906128 10.00000000
-29.92039871 14.43734932 10.00000000
-20.71957207 22.16263771 10.00000000
-26.24382401 16.87861252 10.00000000
-28.19351768 15.98247242 10.00000000
-32.99261093 13.05530357 10.00000000
-23.50180817 20.70849228 10.00000000
-32.85296249 12.25995636 10.00000000
-30.65092659 12.37796116 10.00000000
-22.90226936 19.93075943 10.00000000
-28.39062119 15.96809864 10.00000000
-31.33044815 12.94019032 10.00000000
-30.95736694 12.91177940 10.00000000
-21.39521408 21.70160675 10.00000000
-11.68252373 30.63586617 10.00000000
-19.24432755 23.68853569 10.00000000
-28.59725571 15.16780472 10.00000000
-23.31941605 22.93666840 10.00000000
-26.86824989 20.29899979 10.00000000
-22.69654083 23.54577255 10.00000000
-20.84211349 24.14354134 10.00000000
-24.89182663 23.84943008 10.00000000
-30.29481697 18.58465576 10.00000000
-11.25137711 31.93916321 10.00000000
-28.65434647 21.57283401 10.00000000
-28.53236580 17.68586159 10.00000000
-25.55586815 23.76853943 10.00000000
-26.65862274 20.21798706 10.00000000
-24.03645134 21.39693642 10.00000000
-23.10744476 23.90377808 10.00000000
-20.21485329 24.02121735 10.00000000
-15.70900726 29.32073212 10.00000000
-28.36389160 19.15488052 10.00000000
-28.58637238 21.31208801 10.00000000
-23.63664627 23.74095154 10.00000000
-13.51267529 29.75055504 10.00000000
-17.01293945 27.85971642 10.00000000
-23.44882965 24.75594521 10.00000000
-19.64698792 26.66698265 10.00000000
-32.02223969 14.51944065 10.00000000
-27.61274719 21.27463150 10.00000000
-16.91002274 28.34100342 10.00000000
-28.16826248 18.46003151 10.00000000
-16.62184525 27.69471931 10.00000000
-23.72202682 24.90689087 10.00000000
-27.82249069 20.14901924 10.00000000
-31.13786507 17.14042091 10.00000000
-13.05366516 31.38061714 10.00000000
-30.90179825 16.39265251 10.00000000
-26.89698410 19.10833359 10.00000000
-9.10885048 34.15266800 10.00000000
-21.67975044 26.93987274 10.00000000
-16.16128731 30.24249268 10.00000000
-12.23676014 32.57338333 10.00000000
-10.73636055 33.85386276 10.00000000
-16.17219734 30.18163109 10.00000000
-10.60615826 34.06749344 10.00000000
-20.05145073 28.38222504 10.00000000
4.73554516 -10.96368599 10.00000000
-3.26818752 28.90217018 10.00000000
3.61102343 -12.28938484 10.00000000
4.00645638 -11.51868820 10.00000000
9.58452034 -24.98115921 10.00000000
11.24920654 -24.91875076 10.00000000
2.55521178 -16.81705093 10.00000000
1.44118106 15.00901794 10.00000000
5.56392384 -24.63983536 10.00000000
2.16721296 12.35862350 10.00000000
1.85437036 -13.46151161 10.00000000
4.52216959 -33.14299011 10.00000000
-1.01807773 24.03673363 10.00000000
0.43935394 -5.10546303 10.00000000
1.75950003 -17.96519661 10.00000000
4.63496542 -30.97624016 10.00000000
-0.29690850 7.86852455 10.00000000
9.76281929 -21.06858253 10.00000000
3.80314970 -9.75345039 10.00000000
0.52128118 15.02181435 10.00000000
9.71307468 -17.22888756 10.00000000
6.10903597 -20.64728546 10.00000000
-3.14001942 32.27527618 10.00000000
1.77434230 -34.05207062 10.00000000
4.03908014 -12.57478714 10.00000000
0.60429406 -4.94506645 10.00000000
2.89844441 5.15590715 10.00000000
12.65301132 -31.74121475 10.00000000
4.91890430 -12.12841606 10.00000000
3.33761191 -12.84322166 10.00000000
3.70198083 0.43185997 10.00000000
0.70947367 11.70450974 10.00000000
-2.85684848 24.26731491 10.00000000
6.47661686 -9.81725979 10.00000000
2.05396390 0.49850273 10.00000000
2.87122393 0.85033607 10.00000000
6.42858458 -7.87185955 10.00000000
1.48329139 -6.42247009 10.00000000
0.72393537 11.17875576 10.00000000
10.13791752 -33.13570404 10.00000000
-2.11819649 24.48948097 10.00000000
7.85909081 -22.55774307 10.00000000
-0.99784029 6.20058441 10.00000000
4.55333757 -11.34602165 10.00000000
4.11132050 -33.96298218 10.00000000
1.26270866 -31.38287354 10.00000000
2.96978974 -13.73480606 10.00000000
4.36237144 -25.99096870 10.00000000
4.91938925 -1.17024183 10.00000000
-1.33858299 21.58788300 10.00000000
1.44669342 -12.95967865 10.00000000
2.44549036 -30.55185890 10.00000000
10.10924244 -25.51094437 10.00000000
6.30870628 -30.85939407 10.00000000
7.44470119 -24.21546173 10.00000000
3.69552159 5.31366158 10.00000000
6.38666582 -28.74577332 10.00000000
6.67304754 -5.42392874 10.00000000
4.12381935 -31.94267845 10.00000000
6.01559401 -9.41382790 10.00000000
11.50327396 -31.52455521 10.00000000
4.37491417 -32.52867889 10.00000000
4.66976833 0.50120378 10.00000000
7.35652018 -12.86229229 10.00000000
2.67425084 -19.00243378 10.00000000
3.77866364 -8.39497375 10.00000000
1.22090542 11.74738884 10.00000000
0.28545761 -0.46078682 10.00000000
0.48511672 -7.52488327 10.00000000
2.56698132 8.66888237 10.00000000
2.72812700 -8.56412125 10.00000000
7.66124916 -21.94985962 10.00000000
10.67170429 -22.17383194 10.00000000
-1.81511283 22.43214417 10.00000000
10.61652374 -29.77897644 10.00000000
0.59323430 -3.84244156 10.00000000
6.25722933 -19.52462578 10.00000000
0.13772655 0.59021378 10.00000000
-3.30618238 33.07625961 10.00000000
5.05000687 1.20991302 10.00000000
2.97433472 -9.45272636 10.00000000
6.67487288 -21.03354073 10.00000000
7.57957792 -16.00272369 10.00000000
-0.94691497 21.87332153 10.00000000
5.48490143 -14.76027298 10.00000000
4.85875273 1.19027269 10.00000000
0.50948155 -5.54712296 10.00000000
0.36637044 -12.59780884 10.00000000
11.05252266 -25.15677834 10.00000000
