-28.04739571 -38.90714264 95.00000000
-27.46149635 -37.54747391 95.00000000
-29.42581367 -39.20638275 95.00000000
-26.53912544 -35.51100540 95.00000000
-28.52135658 -39.12359238 95.00000000
-27.88596725 -38.41608429 95.00000000
-28.78714371 -37.61107635 95.00000000
-27.59563637 -36.46870422 95.00000000
-29.07646942 -37.45336914 95.00000000
-29.51876831 -38.48196030 95.00000000
-27.06023216 -35.78127670 95.00000000
-24.22039986 -36.34404373 95.00000000
-24.25057220 -35.62189102 95.00000000
-25.69924927 -36.32268906 95.00000000
-25.40845871 -37.00602341 95.00000000
-25.29149628 -37.90371704 95.00000000
-25.54655457 -41.91693115 95.00000000
-23.93950844 -37.88436127 95.00000000
-23.55790520 -36.85933304 95.00000000
-26.69705963 -41.48234558 95.00000000
-24.74284172 -39.56411743 95.00000000
-25.77459526 -39.42045975 95.00000000
-41.98356628 -25.35180473 95.00000000
-40.65178299 -24.45638275 95.00000000
-39.19487381 -24.38340759 95.00000000
-37.94982147 -23.75426483 95.00000000
-39.00008392 -25.14514923 95.00000000
-35.92683029 -24.56223106 95.00000000
-36.58275604 -25.67755699 95.00000000
-37.87889862 -24.72443581 95.00000000
-40.49523926 -27.04432869 95.00000000
-36.77526855 -25.46199989 95.00000000
-24.12803459 -42.68084335 95.00000000
-21.48155403 -40.77462769 95.00000000
-24.10399437 -42.77883530 95.00000000
-22.45601082 -41.11250305 95.00000000
-20.95659447 -38.27319336 95.00000000
-22.56625366 -44.44961548 95.00000000
-24.28349495 -41.97050476 95.00000000
-22.03107071 -39.39532089 95.00000000
-21.40772629 -37.92642593 95.00000000
-21.74702454 -38.99646378 95.00000000
-23.06007004 -36.43016434 95.00000000
-41.46044922 -23.15212440 95.00000000
-43.58547974 -22.58787537 95.00000000
-42.47299957 -24.28250694 95.00000000
-43.00146866 -24.62314034 95.00000000
-43.43537521 -23.84438324 95.00000000
-41.29996872 -22.65505791 95.00000000
-39.53023911 -23.95696068 95.00000000
-38.27019119 -21.51685333 95.00000000
-38.10437012 -22.12502670 95.00000000
-38.25449371 -22.32875061 95.00000000
-37.30513763 -22.52337456 95.00000000
-44.37568283 -20.70240593 95.00000000
-42.72749329 -19.60273361 95.00000000
-45.86115646 -19.56128502 95.00000000
-41.38248825 -19.53364563 95.00000000
-41.82581329 -19.50761032 95.00000000
-41.46425629 -19.56684303 95.00000000
-38.61382294 -20.77402496 95.00000000
-39.82707596 -20.50582123 95.00000000
-39.42411041 -19.90054512 95.00000000
-40.20790863 -18.80501556 95.00000000
-40.80644226 -20.84249687 95.00000000
-39.05847931 -19.95517921 95.00000000
-19.57746696 -45.99059296 95.00000000
-21.50283051 -44.44372940 95.00000000
-19.12918663 -46.06994247 95.00000000
-20.76824188 -43.19570923 95.00000000
-19.10368347 -44.64503479 95.00000000
-19.82450867 -42.26098633 95.00000000
-18.81602287 -40.12940216 95.00000000
-20.37295532 -39.58612061 95.00000000
-20.52025986 -42.31274033 95.00000000
-19.76755333 -39.53744507 95.00000000
-21.38978958 -42.97301865 95.00000000
-20.90667725 -40.39562607 95.00000000
-41.31726456 -15.26489067 95.00000000
-42.06003952 -15.34630680 95.00000000
-45.34999847 -18.44573593 95.00000000
-44.48333359 -17.74663734 95.00000000
-44.08911896 -17.00487328 95.00000000
-40.33401108 -17.42380142 95.00000000
-42.86039734 -18.03549004 95.00000000
-42.29259872 -17.08240318 95.00000000
-43.51974106 -17.95418739 95.00000000
-41.95584106 -17.60288620 95.00000000
-40.12195206 -16.25274277 95.00000000
-15.41155815 -41.46389008 95.00000000
-17.10955811 -43.91477203 95.00000000
-17.99905205 -46.23130798 95.00000000
-16.35011292 -42.56100464 95.00000000
-16.78795624 -44.58929062 95.00000000
-15.46678066 -42.91563797 95.00000000
-17.46688080 -40.34432220 95.00000000
-16.36289787 -40.70410538 95.00000000
-18.32684517 -44.05068207 95.00000000
-15.73758316 -40.71561813 95.00000000
-17.19962502 -42.25952148 95.00000000
-16.06826973 -41.62787628 95.00000000
-46.94027328 -15.78396606 95.00000000
-47.75427628 -14.26192474 95.00000000
-44.14790726 -13.13549232 95.00000000
-46.12195587 -14.19845581 95.00000000
-45.31631088 -12.75338554 95.00000000
-40.79959869 -13.49323559 95.00000000
-40.63260269 -14.20468426 95.00000000
-44.27390289 -14.63082790 95.00000000
-41.74302673 -13.87143326 95.00000000
-45.50189209 -15.62741184 95.00000000
-14.44611740 -45.78091431 95.00000000
-13.91066551 -47.48876190 95.00000000
-13.56524754 -44.21743774 95.00000000
-12.87031937 -44.46409225 95.00000000
-13.45189476 -45.48503876 95.00000000
-15.61855698 -44.28712463 95.00000000
-14.85513496 -41.31630707 95.00000000
-15.24485874 -43.87693024 95.00000000
-14.32325935 -42.93435287 95.00000000
-15.46847534 -45.44644928 95.00000000
-14.89705563 -43.19295883 95.00000000
-47.20601273 -10.49504757 95.00000000
-44.80238342 -10.71785355 95.00000000
-47.75194550 -11.08168507 95.00000000
-48.00358582 -9.87160969 95.00000000
-46.39578247 -10.25418758 95.00000000
-43.94021225 -11.64996910 95.00000000
-45.78342819 -11.89944458 95.00000000
-42.69917297 -10.40304565 95.00000000
-42.21307755 -11.57687950 95.00000000
-45.44594193 -11.75346088 95.00000000
-12.30299664 -47.56714630 95.00000000
-9.59724903 -44.26416016 95.00000000
-9.85187531 -47.58058929 95.00000000
-10.64190960 -45.95097733 95.00000000
-10.09160900 -46.43847656 95.00000000
-12.59815884 -47.17306900 95.00000000
-12.22763348 -47.04993057 95.00000000
-11.33439064 -44.08296585 95.00000000
-11.31813335 -44.05392456 95.00000000
-12.30536747 -44.85930252 95.00000000
-10.68493176 -42.18803406 95.00000000
-43.65816879 -6.24427509 95.00000000
-47.77930832 -6.74410057 95.00000000
-48.37958527 -8.49711514 95.00000000
-47.81317139 -8.74133110 95.00000000
-48.43009567 -8.86285591 95.00000000
-47.62452698 -7.17025375 95.00000000
-43.39073944 -7.54620504 95.00000000
-42.45101166 -7.25525570 95.00000000
-43.37992477 -7.71975422 95.00000000
-45.47037888 -9.29020023 95.00000000
-43.91880798 -8.19774914 95.00000000
-7.33097315 -47.76165771 95.00000000
-8.50370884 -47.27144241 95.00000000
-8.70217323 -49.12071991 95.00000000
-7.15735483 -47.55010223 95.00000000
-9.17871952 -48.85707855 95.00000000
-6.57687998 -46.61371231 95.00000000
-7.48371029 -43.37476349 95.00000000
-7.47525501 -43.46432114 95.00000000
-8.54035187 -43.62685776 95.00000000
-8.96352577 -45.64115143 95.00000000
-8.75799561 -46.08327866 95.00000000
-46.65190887 -3.76092553 95.00000000
-45.07538223 -3.41830015 95.00000000
-47.89953613 -5.51571941 95.00000000
-48.89452744 -3.76337671 95.00000000
-47.71507263 -4.41901588 95.00000000
-43.68114853 -4.18689919 95.00000000
-43.73733139 -4.57253790 95.00000000
-45.04234695 -5.82859898 95.00000000
-45.42800903 -5.55805922 95.00000000
-43.96679688 -5.32190132 95.00000000
-43.58713531 -5.44963360 95.00000000
-3.98181629 -46.82679749 95.00000000
-3.44452572 -47.06925201 95.00000000
-3.51465678 -46.73480988 95.00000000
-3.84591889 -48.90159607 95.00000000
-5.03329563 -47.42409897 95.00000000
-5.42912769 -49.64638138 95.00000000
-5.28798437 -45.34686279 95.00000000
-4.61768055 -45.09173965 95.00000000
-6.42338276 -49.03377151 95.00000000
-5.75210667 -44.43622589 95.00000000
-4.36502218 -44.93504333 95.00000000
-47.67286301 -0.73341280 95.00000000
-47.91461182 -0.46983391 95.00000000
-49.12308121 -0.95675355 95.00000000
-49.64743805 -0.55750406 95.00000000
-45.18751907 -0.31135279 95.00000000
-46.35478973 -2.90861511 95.00000000
-43.65430450 -0.47277197 95.00000000
-45.14991379 -2.36920452 95.00000000
-43.38415146 -2.34405375 95.00000000
-43.11350632 -1.20128047 95.00000000
-48.52948380 0.20458077 95.00000000
-49.16009140 2.41448259 95.00000000
-48.99581528 2.62875509 95.00000000
-48.82265854 1.85097635 95.00000000
-48.41442871 0.60075164 95.00000000
-0.02205629 -47.20100784 95.00000000
-1.66997159 -49.36621475 95.00000000
-1.56117558 -46.53638840 95.00000000
-1.04003632 -48.47359467 95.00000000
-2.58676934 -49.05649185 95.00000000
1.02944148 -47.26498032 95.00000000
0.41221982 -47.17187119 95.00000000
0.48355055 -46.95191193 95.00000000
0.84598607 -46.64201736 95.00000000
0.88682580 -47.56304550 95.00000000
0.69784814 -48.90408707 95.00000000
-1.98329473 -45.96514130 95.00000000
-2.66597462 -43.59904480 95.00000000
-2.74640369 -48.41897964 95.00000000
-1.89851046 -45.15869141 95.00000000
-2.76823401 -47.07226944 95.00000000
-2.45399094 -44.85193253 95.00000000
-45.59193802 3.12066460 95.00000000
-43.77122498 1.94219220 95.00000000
-44.62544250 1.00244045 95.00000000
-43.51544952 1.10399842 95.00000000
-44.78900528 2.50590849 95.00000000
-47.03197861 3.08663297 95.00000000
-47.89358139 4.94855833 95.00000000
-49.35136795 4.15523624 95.00000000
-49.31134796 4.74994564 95.00000000
-44.35391235 3.60280943 95.00000000
-46.35754395 3.74705052 95.00000000
-49.51014709 3.96654153 95.00000000
4.25997925 -49.32067871 95.00000000
3.45080662 -49.68906021 95.00000000
4.06964684 -47.02888107 95.00000000
4.71864319 -46.90452194 95.00000000
3.73944521 -47.14303589 95.00000000
3.15786052 -44.94969177 95.00000000
2.79470277 -43.00432968 95.00000000
2.36434436 -43.51762390 95.00000000
2.87707162 -46.62191772 95.00000000
1.93489909 -44.49935532 95.00000000
1.31715870 -43.11301041 95.00000000
-44.36285019 4.07179832 95.00000000
-43.49392319 5.72930670 95.00000000
-46.50526047 5.96640205 95.00000000
-46.59107208 5.21309614 95.00000000
-46.38373566 4.89063025 95.00000000
-46.98690033 7.49601889 95.00000000
-44.85455704 6.96733665 95.00000000
-43.51618195 6.44990444 95.00000000
-48.03333664 8.78478050 95.00000000
-47.55529404 6.85829210 95.00000000
-47.50080490 8.17372513 95.00000000
7.53305626 -47.91353226 95.00000000
8.69306564 -48.19147110 95.00000000
7.62469244 -45.92613220 95.00000000
7.07870436 -44.32807922 95.00000000
6.72505856 -46.47295380 95.00000000
6.06135750 -46.43330383 95.00000000
5.77403402 -46.31318665 95.00000000
5.33092260 -43.83811188 95.00000000
3.89969540 -43.10102081 95.00000000
6.12750340 -47.48618698 95.00000000
-46.01816559 8.91517162 95.00000000
-43.52438354 9.10291767 95.00000000
-44.76422882 7.46453953 95.00000000
-45.37710571 9.41993809 95.00000000
-42.76118469 8.08606815 95.00000000
-46.85639954 9.23386383 95.00000000
-47.49556351 11.84896755 95.00000000
-48.38899231 12.02871704 95.00000000
-48.91848755 10.00689411 95.00000000
-48.43549347 9.77359867 95.00000000
-46.24766159 10.91212559 95.00000000
-46.81901550 11.46613121 95.00000000
10.57847595 -44.63842773 95.00000000
9.85428905 -47.60577011 95.00000000
9.89493847 -46.07818985 95.00000000
9.54660988 -42.78853226 95.00000000
10.83631516 -45.19471741 95.00000000
9.99163055 -45.51652527 95.00000000
8.53631020 -43.22250748 95.00000000
9.23939705 -44.17600632 95.00000000
8.97083282 -43.20067978 95.00000000
6.72777462 -43.59853363 95.00000000
7.47952890 -42.86182022 95.00000000
9.26532650 -47.60680389 95.00000000
-42.82091904 12.06938362 95.00000000
-41.87313461 11.58131599 95.00000000
-41.68123245 11.33230972 95.00000000
-44.75482559 11.81391048 95.00000000
-42.02199554 10.36779308 95.00000000
-44.92188644 14.13676453 95.00000000
-45.12004089 14.18711376 95.00000000
-46.55705643 12.75872326 95.00000000
-44.12110519 13.83859730 95.00000000
-43.39279938 13.14237404 95.00000000
-47.51493835 13.87205219 95.00000000
15.20799732 -47.42727661 95.00000000
13.80984020 -45.89461899 95.00000000
14.67071152 -47.36687088 95.00000000
13.08022594 -45.08768082 95.00000000
13.68102169 -46.84156418 95.00000000
14.19993114 -44.49520874 95.00000000
11.87098789 -46.33604431 95.00000000
10.35562611 -42.36952209 95.00000000
10.25047493 -43.00189590 95.00000000
10.05393600 -43.50724030 95.00000000
10.84751511 -44.14062500 95.00000000
-42.63138962 15.21656418 95.00000000
-44.80140686 15.17340946 95.00000000
-41.57637024 15.16066647 95.00000000
-43.80812073 14.18552303 95.00000000
-42.49672699 12.94862175 95.00000000
-42.65270233 14.25625992 95.00000000
-46.10884476 17.15859032 95.00000000
-46.51924133 17.13923836 95.00000000
-43.62656403 15.69545841 95.00000000
-44.40158463 16.12621880 95.00000000
-44.95292282 16.65691948 95.00000000
-42.49716187 15.88314533 95.00000000
16.22087669 -45.52908707 95.00000000
15.66496563 -43.31832504 95.00000000
16.27217484 -43.20208359 95.00000000
16.65148926 -45.81217194 95.00000000
16.78181267 -45.93926620 95.00000000
15.27643585 -41.55157852 95.00000000
15.26519012 -43.74424362 95.00000000
13.81466293 -42.44988251 95.00000000
15.37785149 -43.23697662 95.00000000
15.71843719 -46.37562943 95.00000000
15.30963516 -44.95853043 95.00000000
15.46682644 -43.90604019 95.00000000
-40.29311752 15.10476875 95.00000000
-40.68078995 15.49941635 95.00000000
-39.49986649 17.16888046 95.00000000
-40.52195740 16.10549164 95.00000000
-43.70984650 17.78970528 95.00000000
-41.63365173 18.35249519 95.00000000
-42.72596741 18.53989029 95.00000000
-43.91044617 20.97506714 95.00000000
-44.85696793 20.56904030 95.00000000
-41.82223892 19.26330757 95.00000000
-44.48350143 20.89193535 95.00000000
17.64250374 -39.55671692 95.00000000
16.90463066 -40.32976151 95.00000000
17.88186836 -40.66239166 95.00000000
18.79408455 -44.43487549 95.00000000
15.97156525 -41.02742386 95.00000000
17.98036385 -40.40014648 95.00000000
19.17505264 -45.73608017 95.00000000
18.58072090 -41.43091965 95.00000000
21.12870216 -45.27057266 95.00000000
19.29909325 -45.63662338 95.00000000
19.27268791 -46.04747009 95.00000000
19.43784142 -42.07270432 95.00000000
-40.93034363 20.56291008 95.00000000
-39.64627838 20.23690987 95.00000000
-44.14430237 21.72314644 95.00000000
-38.92211151 18.29062080 95.00000000
-42.36534119 20.97723198 95.00000000
-41.84600067 21.24085045 95.00000000
-40.63859558 22.25162888 95.00000000
-44.07125092 23.10261917 95.00000000
-44.21991730 22.31179047 95.00000000
-44.16117477 22.81192970 95.00000000
-44.00228500 22.25607491 95.00000000
-43.70275879 23.68520164 95.00000000
22.03860283 -39.66054916 95.00000000
22.09283829 -40.30513382 95.00000000
21.96831322 -42.24984741 95.00000000
23.44724655 -44.00693512 95.00000000
21.85269547 -43.53826141 95.00000000
23.93257713 -42.56335449 95.00000000
20.48694038 -38.38644791 95.00000000
20.62590027 -39.78353119 95.00000000
21.89009476 -43.85423279 95.00000000
19.65218925 -39.09052658 95.00000000
19.60899925 -38.82067490 95.00000000
-36.83744049 22.68969154 95.00000000
-39.48905945 23.24075699 95.00000000
-36.55914688 23.10980797 95.00000000
-40.04405594 23.97332382 95.00000000
-37.31365967 22.62335205 95.00000000
-42.25092316 24.70451927 95.00000000
-39.79994965 24.35176659 95.00000000
-40.33372879 26.58995056 95.00000000
-41.84294891 26.80323792 95.00000000
-41.04822540 25.60661507 95.00000000
-40.66643906 24.50918961 95.00000000
22.61931801 -37.46232986 95.00000000
21.91701508 -38.15848160 95.00000000
21.93424988 -38.72844315 95.00000000
24.42254829 -41.92304993 95.00000000
24.46404266 -41.19293213 95.00000000
25.51001740 -40.33713913 95.00000000
26.57931900 -41.98159790 95.00000000
25.96665573 -39.58003998 95.00000000
26.16943741 -41.34480667 95.00000000
26.68300819 -42.06169510 95.00000000
26.96365547 -40.67801666 95.00000000
-39.38586426 26.42635727 95.00000000
-35.58044815 25.09491920 95.00000000
-39.12077332 26.18933678 95.00000000
-35.39358139 25.63900948 95.00000000
-36.18064499 23.89035034 95.00000000
-35.40564728 25.08813667 95.00000000
-39.47557449 30.03806686 95.00000000
-39.43321609 27.76535034 95.00000000
-36.06813049 26.53730392 95.00000000
-38.48616791 27.38635635 95.00000000
-34.89908600 25.96428871 95.00000000
27.56013680 -39.65282059 95.00000000
26.08378029 -34.90767670 95.00000000
26.61853981 -36.83113861 95.00000000
29.65984344 -39.42021179 95.00000000
28.17839813 -38.52849579 95.00000000
27.99357796 -38.58372116 95.00000000
26.45623207 -39.44625854 95.00000000
27.35523987 -40.84971619 95.00000000
25.78313637 -38.36526489 95.00000000
24.69821548 -36.01452255 95.00000000
25.10956764 -37.64644623 95.00000000
26.31207466 -37.25941086 95.00000000
-38.06080246 29.16500854 95.00000000
-34.96517944 28.34543991 95.00000000
-34.61906815 28.59665108 95.00000000
-38.73331070 30.00126457 95.00000000
-34.45246887 27.77070618 95.00000000
-38.24068451 29.85327721 95.00000000
-34.34682465 29.39792824 95.00000000
-34.30277252 29.22314453 95.00000000
-37.77037811 31.16893578 95.00000000
-35.35791397 30.49861526 95.00000000
-36.59770584 30.45284081 95.00000000
31.15611458 -35.89399338 95.00000000
31.45590210 -36.65472031 95.00000000
30.17430496 -37.15836334 95.00000000
31.57517624 -38.30514908 95.00000000
32.05177689 -38.23536301 95.00000000
31.59300232 -38.11818314 95.00000000
28.59380341 -35.75799942 95.00000000
29.21728134 -37.42162704 95.00000000
29.36398888 -36.37239456 95.00000000
28.03821564 -36.14157867 95.00000000
28.48779678 -33.71662521 95.00000000
-33.68544769 29.55363274 95.00000000
-35.82174683 31.75157738 95.00000000
-31.08918381 30.47023201 95.00000000
-33.82307816 31.56062698 95.00000000
-33.04929352 29.27521896 95.00000000
-32.51956177 30.12437439 95.00000000
-31.38688660 30.91658020 95.00000000
-32.70075226 32.31388092 95.00000000
-32.95510101 32.28717804 95.00000000
-34.16064835 32.76140213 95.00000000
-34.88924408 32.67018890 95.00000000
-32.95436096 32.66756058 95.00000000
30.67431259 -34.12736511 95.00000000
28.66695786 -32.36620712 95.00000000
29.67861176 -33.73112869 95.00000000
30.50545502 -32.11539078 95.00000000
31.78800583 -35.37934494 95.00000000
32.38702393 -35.73219299 95.00000000
33.89243317 -35.37739182 95.00000000
33.09350586 -37.25611496 95.00000000
33.90662766 -36.05236053 95.00000000
33.99825287 -36.48062515 95.00000000
32.08615112 -33.14540100 95.00000000
-30.89146614 32.42314148 95.00000000
-31.53717804 35.41927719 95.00000000
-31.25723457 33.63785172 95.00000000
-30.07467270 31.12504578 95.00000000
-30.71607018 33.20037842 95.00000000
-33.18951035 35.72515869 95.00000000
-33.52571869 34.33316803 95.00000000
-34.70209503 34.84138489 95.00000000
-33.21906662 34.06713867 95.00000000
-31.85375023 31.98725891 95.00000000
-33.01990128 34.04029846 95.00000000
32.65336609 -32.40328598 95.00000000
33.30324936 -32.42242813 95.00000000
34.88253784 -33.75385284 95.00000000
35.61149597 -34.77107239 95.00000000
34.86747742 -33.88833237 95.00000000
35.67620468 -33.39045334 95.00000000
33.98533249 -30.43013191 95.00000000
32.14976883 -30.29770088 95.00000000
35.20160675 -31.54836082 95.00000000
33.41468048 -30.12095642 95.00000000
33.59154510 -30.13454247 95.00000000
-28.47155952 36.95846558 95.00000000
-27.87948608 34.53216553 95.00000000
-28.23214912 37.05717468 95.00000000
-26.79618645 33.94662857 95.00000000
-27.81898117 36.21495438 95.00000000
-29.30539513 38.30725861 95.00000000
-32.70792007 37.61613464 95.00000000
-31.63895607 36.67571259 95.00000000
-30.46750259 38.79555511 95.00000000
-29.64555168 34.10289764 95.00000000
-29.28587723 34.46834183 95.00000000
-30.62685776 36.50918198 95.00000000
36.17529678 -28.51302910 95.00000000
36.21749115 -29.14732170 95.00000000
37.32583618 -29.35802841 95.00000000
36.46808243 -29.04783249 95.00000000
33.51280594 -27.01774025 95.00000000
34.43905258 -29.63183022 95.00000000
37.27376938 -31.82353592 95.00000000
33.39987183 -28.75594902 95.00000000
34.67896652 -28.98463821 95.00000000
34.78375626 -29.40716553 95.00000000
35.72935486 -29.63080025 95.00000000
-27.71891403 41.38825226 95.00000000
-24.90464592 37.27539063 95.00000000
-25.22321892 36.82556152 95.00000000
-27.55238152 41.23619461 95.00000000
-23.93247986 36.55284882 95.00000000
-29.29944229 39.88309097 95.00000000
-26.20113373 34.98148346 95.00000000
-29.08099747 39.71368027 95.00000000
-26.49576759 36.94432068 95.00000000
-28.62274170 38.97433472 95.00000000
38.07379150 -25.63940239 95.00000000
35.87560272 -25.93541908 95.00000000
39.35622787 -26.53390121 95.00000000
35.53214645 -25.23488998 95.00000000
35.98277283 -25.79355621 95.00000000
35.09981918 -25.70062447 95.00000000
36.01442719 -26.63928604 95.00000000
38.73878860 -29.05728912 95.00000000
36.60611343 -27.15227699 95.00000000
39.63274765 -27.77927780 95.00000000
38.70094299 -28.80150604 95.00000000
40.77804947 -28.56556129 95.00000000
-23.27873230 39.27263641 95.00000000
-22.86531448 39.42738342 95.00000000
-22.47542191 38.59564209 95.00000000
-21.91274452 37.92272949 95.00000000
-21.99063873 37.07321167 95.00000000
-25.17582512 42.38996887 95.00000000
-26.00347328 39.63795471 95.00000000
-26.72772789 41.19473267 95.00000000
-26.54468727 42.00352478 95.00000000
-25.67591286 40.06063080 95.00000000
-26.57096100 41.31840897 95.00000000
38.61578369 -21.74791908 95.00000000
39.79747391 -23.79452133 95.00000000
42.28843689 -24.33799553 95.00000000
39.41126633 -23.91076660 95.00000000
39.03446579 -22.37365532 95.00000000
41.89281082 -26.24080849 95.00000000
40.14823532 -25.83727837 95.00000000
41.92405319 -25.60477448 95.00000000
40.15476227 -24.51094246 95.00000000
40.34500504 -25.29268074 95.00000000
37.64603424 -23.87957191 95.00000000
-21.15611839 38.68793869 95.00000000
-23.02158356 42.71741486 95.00000000
-21.36085510 40.04232788 95.00000000
-22.56218147 43.82081985 95.00000000
-22.02855682 43.61945724 95.00000000
-21.06655312 40.14789963 95.00000000
-18.23596573 39.61532593 95.00000000
-18.41962051 39.63973999 95.00000000
-20.75152779 42.19697952 95.00000000
-20.18689537 42.02701187 95.00000000
-19.68838120 39.93696594 95.00000000
39.96423340 -19.33852005 95.00000000
41.44697571 -20.26719284 95.00000000
40.46976852 -19.26686668 95.00000000
42.83884430 -21.28324509 95.00000000
41.58676529 -21.20486641 95.00000000
41.45181656 -20.38278770 95.00000000
43.69908905 -23.66385651 95.00000000
42.57249069 -23.07712364 95.00000000
44.59252167 -22.10089684 95.00000000
42.02558136 -22.03063774 95.00000000
43.12032318 -23.15835953 95.00000000
-20.78498268 44.29084396 95.00000000
-20.13470459 42.79060364 95.00000000
-19.05351067 42.91374207 95.00000000
-18.90782738 43.09053040 95.00000000
-19.50529099 42.99896240 95.00000000
-16.56313133 42.15587234 95.00000000
-18.92072678 45.64653015 95.00000000
-17.85828972 39.65394211 95.00000000
-16.19161224 40.65042877 95.00000000
-17.25764465 42.24539185 95.00000000
45.68179321 -19.78842163 95.00000000
44.71701050 -21.13307953 95.00000000
43.67230225 -20.72078133 95.00000000
43.31866455 -19.42143250 95.00000000
44.67515564 -19.90493584 95.00000000
43.74111938 -19.05525208 95.00000000
44.75329208 -18.21190643 95.00000000
41.35371399 -16.55828285 95.00000000
41.38919067 -18.18583488 95.00000000
43.30810547 -18.35399246 95.00000000
42.77600479 -17.25892067 95.00000000
-16.04127121 42.24069977 95.00000000
-16.26145363 42.22815323 95.00000000
-16.69189072 43.45366287 95.00000000
-18.14514542 46.24171829 95.00000000
-15.55539227 43.64998627 95.00000000
-17.49496841 44.08662796 95.00000000
-13.97451591 41.45791245 95.00000000
-15.21376228 43.01953506 95.00000000
-15.83200645 46.55774689 95.00000000
-14.24895096 42.56975937 95.00000000
-15.38783836 45.28118134 95.00000000
-15.63601208 44.78350830 95.00000000
45.70269394 -17.25728607 95.00000000
43.46850967 -15.74829483 95.00000000
45.52095795 -18.52146530 95.00000000
45.93007660 -17.77255630 95.00000000
44.64588547 -17.90246582 95.00000000
43.69003296 -15.69301510 95.00000000
40.37330246 -14.93112755 95.00000000
40.95053101 -14.03294468 95.00000000
45.52245331 -15.65911007 95.00000000
44.44186020 -14.48911190 95.00000000
41.83106613 -13.05508995 95.00000000
-11.11136341 41.83781815 95.00000000
-11.61394596 43.29302216 95.00000000
-10.83103943 42.20851517 95.00000000
-12.45549202 46.46516037 95.00000000
-12.51765919 44.91451645 95.00000000
-12.41984272 43.30457306 95.00000000
-14.07685280 46.73830414 95.00000000
-13.53826332 46.28493118 95.00000000
-14.64813232 46.48801041 95.00000000
-12.82291222 46.57495880 95.00000000
-12.77304173 44.31851196 95.00000000
46.25954437 -13.26670647 95.00000000
45.74807739 -14.23024368 95.00000000
43.48725510 -13.44479084 95.00000000
47.23203659 -15.93800640 95.00000000
46.77054977 -14.34374428 95.00000000
46.21364594 -13.46747494 95.00000000
43.06456375 -11.62403679 95.00000000
46.61256409 -12.53078556 95.00000000
44.07401276 -10.89562321 95.00000000
46.09370804 -11.68489838 95.00000000
42.23724365 -11.88304234 95.00000000
-6.99768543 42.81015778 95.00000000
-8.90944958 42.78165436 95.00000000
-8.95346737 47.44968033 95.00000000
-6.87818718 43.34131241 95.00000000
-9.10178185 42.72150803 95.00000000
-10.47099495 46.22270203 95.00000000
-9.67008591 47.71136856 95.00000000
-10.39617443 45.21673965 95.00000000
-10.18558502 46.78419495 95.00000000
-11.43986130 46.55083084 95.00000000
-9.68366146 43.75619507 95.00000000
46.78455353 -10.84086227 95.00000000
47.91077042 -11.60354424 95.00000000
44.14751434 -9.40134811 95.00000000
45.95020294 -11.20089531 95.00000000
44.74399185 -9.88979626 95.00000000
42.29488754 -9.25223446 95.00000000
43.82471848 -9.02477741 95.00000000
42.96495819 -8.04930019 95.00000000
42.67240524 -6.52341986 95.00000000
44.02838898 -7.34580469 95.00000000
48.14924240 -9.26165009 95.00000000
44.29117966 -9.08168030 95.00000000
-4.01903534 42.98478317 95.00000000
-5.58356094 46.36785889 95.00000000
-4.04751396 44.16287613 95.00000000
-3.37744355 43.17109680 95.00000000
-4.89522409 45.95718384 95.00000000
-8.96573162 48.88339233 95.00000000
-7.67593479 48.63203049 95.00000000
-8.05453300 46.09132385 95.00000000
-9.27570057 48.64221191 95.00000000
-7.21539211 46.24938202 95.00000000
48.47666550 -6.63433790 95.00000000
47.04840851 -6.95853949 95.00000000
44.78977966 -6.46825075 95.00000000
48.39812469 -7.01288176 95.00000000
48.67598724 -9.23648167 95.00000000
48.68875504 -7.91013193 95.00000000
42.94902802 -5.95208025 95.00000000
45.94221497 -6.27999592 95.00000000
47.25068665 -5.98802996 95.00000000
44.90074539 -4.38655853 95.00000000
44.39613724 -4.86638737 95.00000000
-0.70292759 43.11127472 95.00000000
-2.74293327 47.04343414 95.00000000
-2.96078420 45.94533920 95.00000000
-1.23638821 45.57225037 95.00000000
-1.20685720 45.25156403 95.00000000
-3.76533937 45.18439484 95.00000000
-5.02324581 49.32905960 95.00000000
-4.24589682 46.07699203 95.00000000
-3.29694581 47.31755066 95.00000000
-4.56592560 47.65132523 95.00000000
-3.77882147 45.50518799 95.00000000
48.05162811 -3.28939223 95.00000000
46.23294830 -4.41391754 95.00000000
47.72752380 -3.40530682 95.00000000
49.11390305 -5.05225039 95.00000000
49.09577560 -5.39799786 95.00000000
48.04830933 -5.67244720 95.00000000
43.47758484 -1.60562992 95.00000000
47.58493042 -2.60092092 95.00000000
44.24050522 -1.19115412 95.00000000
43.06374741 -0.65883899 95.00000000
45.75299835 -1.33449304 95.00000000
47.65138626 -2.59884953 95.00000000
49.21803665 -0.02550873 95.00000000
48.41667938 -2.24195385 95.00000000
46.92004395 -0.81211251 95.00000000
46.74980927 -1.36190438 95.00000000
47.53227234 -2.01659441 95.00000000
49.88049698 -0.54390228 95.00000000
-2.93971920 49.59399033 95.00000000
-1.82280231 47.54934692 95.00000000
-2.13054991 48.42934799 95.00000000
-2.30326581 49.59299088 95.00000000
-1.11703825 48.13963699 95.00000000
-0.05811156 45.19134903 95.00000000
49.47935104 0.27111340 95.00000000
45.28622437 0.11841470 95.00000000
45.40141296 0.75939870 95.00000000
46.82488251 1.30993760 95.00000000
45.50199127 0.54085910 95.00000000
49.29662323 2.67808723 95.00000000
48.37141037 2.77367353 95.00000000
44.80406952 2.91710877 95.00000000
43.50550842 1.21633410 95.00000000
43.41278458 1.63558888 95.00000000
43.44091415 2.76820827 95.00000000
1.64257729 44.34147263 95.00000000
1.68319058 44.17209244 95.00000000
1.73706889 43.72409821 95.00000000
2.19611263 46.11696625 95.00000000
2.00916648 45.21557999 95.00000000
0.47005367 45.30358887 95.00000000
0.48239374 44.88877487 95.00000000
1.78533912 48.94131470 95.00000000
0.55267811 44.79056168 95.00000000
1.50549173 48.07149887 95.00000000
48.64353943 4.02644777 95.00000000
49.17256546 3.31014681 95.00000000
45.34825516 3.66662121 95.00000000
46.18810654 4.01958609 95.00000000
48.38142776 4.19123411 95.00000000
47.31749725 4.63881683 95.00000000
44.18031693 4.55577946 95.00000000
48.13901520 6.25529385 95.00000000
43.99227142 4.61579466 95.00000000
47.45352936 6.10384655 95.00000000
45.89195251 5.41442633 95.00000000
5.04490662 44.79296112 95.00000000
6.18837070 47.12974548 95.00000000
5.88205862 43.58860016 95.00000000
4.92108583 42.72688675 95.00000000
3.87017155 43.20143890 95.00000000
5.28853130 48.50988770 95.00000000
3.93950915 45.66600418 95.00000000
4.80641413 48.83485031 95.00000000
4.98107386 47.57794952 95.00000000
3.30730033 44.62192917 95.00000000
3.72663736 48.06138992 95.00000000
9.03973484 47.73348236 95.00000000
7.44737434 42.48050308 95.00000000
8.99435711 46.52315903 95.00000000
8.69155502 45.21820450 95.00000000
8.76815796 46.02846527 95.00000000
6.90912771 49.40926743 95.00000000
6.94825649 47.68236160 95.00000000
7.61151409 47.07219696 95.00000000
8.68147469 47.96546173 95.00000000
6.41651344 45.43195343 95.00000000
7.10417795 47.74148178 95.00000000
44.32510376 7.01690149 95.00000000
48.69465256 6.96302032 95.00000000
48.00152588 8.60244370 95.00000000
48.75343704 8.84974957 95.00000000
47.68897629 6.64770985 95.00000000
43.81038666 7.70846891 95.00000000
45.25142670 7.95822144 95.00000000
43.11089325 8.63230324 95.00000000
42.51209259 7.60264015 95.00000000
43.13746262 8.15690422 95.00000000
46.82007599 9.35931396 95.00000000
10.81673527 44.29760742 95.00000000
10.08552074 42.37072754 95.00000000
10.16633987 42.27791214 95.00000000
11.92617512 43.94300079 95.00000000
11.18050385 41.53582764 95.00000000
10.36241150 47.30392456 95.00000000
10.32401180 47.14715958 95.00000000
10.76058006 48.16493225 95.00000000
11.66617393 47.55489349 95.00000000
10.43183899 48.07132721 95.00000000
46.51038742 11.39090157 95.00000000
46.61866379 11.74234867 95.00000000
44.81843567 9.79092693 95.00000000
47.66460419 11.15949345 95.00000000
46.06891251 10.68929195 95.00000000
47.49935532 12.15579987 95.00000000
43.15916443 11.39263439 95.00000000
46.39691544 12.12195683 95.00000000
46.89394760 12.23284435 95.00000000
42.72110748 10.98014927 95.00000000
43.21574783 11.93247795 95.00000000
45.48094940 11.39002419 95.00000000
14.42028046 41.97016907 95.00000000
14.43257236 43.40987396 95.00000000
12.98831272 42.58563995 95.00000000
13.69591808 42.66962433 95.00000000
12.88088417 41.29470062 95.00000000
13.95007038 42.08684158 95.00000000
12.63700199 44.28798294 95.00000000
15.17338276 46.72282791 95.00000000
13.84754562 47.05699158 95.00000000
14.44084263 46.74114990 95.00000000
14.90375519 47.06160736 95.00000000
13.35802460 45.72422791 95.00000000
42.08670807 13.02811432 95.00000000
42.19263458 14.38252926 95.00000000
44.54383087 14.63751888 95.00000000
40.80564499 13.65055752 95.00000000
42.79731369 14.42735291 95.00000000
47.64208603 14.24640179 95.00000000
47.19577408 14.28207111 95.00000000
43.55649567 13.55891037 95.00000000
43.29790497 13.13522530 95.00000000
42.71954727 12.74034595 95.00000000
48.07357788 12.95470238 95.00000000
42.29246521 16.65385056 95.00000000
40.99356079 16.49705315 95.00000000
40.23004913 15.92926311 95.00000000
41.76964951 17.12907791 95.00000000
41.51628876 18.02584457 95.00000000
42.66389465 18.21199989 95.00000000
44.51168060 16.35638046 95.00000000
44.86891937 15.71918774 95.00000000
42.39256668 15.43050385 95.00000000
44.56865692 16.52178383 95.00000000
45.15930939 16.15090179 95.00000000
45.54971313 17.87458611 95.00000000
16.52054405 41.17954636 95.00000000
16.77614212 39.72179413 95.00000000
17.31644821 41.53026581 95.00000000
16.49041939 40.53683472 95.00000000
15.43882275 40.13707733 95.00000000
18.74167061 45.88853073 95.00000000
15.84434795 42.27388000 95.00000000
15.63280869 42.66632462 95.00000000
16.39465714 43.17898560 95.00000000
15.41095543 42.68821335 95.00000000
18.22333717 45.28490067 95.00000000
21.13270760 43.30250931 95.00000000
20.51919365 42.01846313 95.00000000
21.41394806 43.56708145 95.00000000
18.52704430 39.05547333 95.00000000
21.00813675 41.74877930 95.00000000
19.97699356 43.09716797 95.00000000
19.89936447 43.11138153 95.00000000
19.86046982 44.71327209 95.00000000
19.66009712 45.56568527 95.00000000
18.61116600 43.09805298 95.00000000
19.91649818 43.10739136 95.00000000
40.56873322 20.64416885 95.00000000
42.45209122 21.02213097 95.00000000
40.74599457 20.03128242 95.00000000
39.96334839 19.20520973 95.00000000
38.29138184 20.50920105 95.00000000
44.87834167 21.55596733 95.00000000
43.58341980 19.02762413 95.00000000
41.51065063 18.71890068 95.00000000
44.33168411 20.17439079 95.00000000
41.88442230 19.05745506 95.00000000
42.37417984 19.58131027 95.00000000
23.45506096 38.89758301 95.00000000
23.61951828 39.44765091 95.00000000
23.49179840 37.79888916 95.00000000
23.49073601 39.33506393 95.00000000
23.49560928 38.54603195 95.00000000
24.25807953 42.63088226 95.00000000
22.02506828 42.06409836 95.00000000
23.12421227 40.98042679 95.00000000
21.52098846 39.87621689 95.00000000
21.53247070 39.24881744 95.00000000
23.69092560 42.81014633 95.00000000
40.59503174 23.24520111 95.00000000
39.35577011 22.95060158 95.00000000
39.92772293 24.07653618 95.00000000
40.49295807 23.83833122 95.00000000
38.88432312 22.24807739 95.00000000
38.65089035 23.81340790 95.00000000
38.56953812 20.82782745 95.00000000
43.77410126 23.44508553 95.00000000
43.08033371 24.61927605 95.00000000
44.42042542 22.69621658 95.00000000
43.47345352 22.39630318 95.00000000
40.99497986 22.65252113 95.00000000
25.69529724 35.94339752 95.00000000
25.34137535 37.22370529 95.00000000
24.98457718 37.69129181 95.00000000
24.52184868 35.36604309 95.00000000
25.09704971 37.87850571 95.00000000
24.49219131 38.42185974 95.00000000
23.41432571 36.81265640 95.00000000
24.72426605 40.05852509 95.00000000
25.12078857 40.79280090 95.00000000
25.16865730 38.92464066 95.00000000
26.47565079 41.62535095 95.00000000
42.07111740 25.67159462 95.00000000
40.39244843 25.30066681 95.00000000
42.39728165 26.33847427 95.00000000
40.39295197 25.79914856 95.00000000
37.66871643 24.17045021 95.00000000
42.38477325 24.89825439 95.00000000
36.64498901 23.70761108 95.00000000
39.67642593 26.40276527 95.00000000
39.02779388 26.74798584 95.00000000
36.22057724 23.32879066 95.00000000
36.41388702 24.30977821 95.00000000
39.22583008 30.17251587 95.00000000
36.97812653 28.62922859 95.00000000
35.35683060 28.95386124 95.00000000
33.24850464 27.88033104 95.00000000
33.94671249 28.59289169 95.00000000
37.27000046 29.08101463 95.00000000
36.58540344 27.46785736 95.00000000
38.05465317 28.57858086 95.00000000
38.96042633 28.91018677 95.00000000
38.29862976 28.48034477 95.00000000
38.05895615 28.62545013 95.00000000
39.59936523 27.22553062 95.00000000
27.85354233 34.22342300 95.00000000
28.11112022 32.71912384 95.00000000
28.89637566 36.92538071 95.00000000
28.93962097 36.97098541 95.00000000
27.96383476 35.24126434 95.00000000
28.14627457 33.83274460 95.00000000
26.80370522 36.22072601 95.00000000
28.55006027 38.04193497 95.00000000
28.01635551 36.95645905 95.00000000
28.28344345 39.16695786 95.00000000
29.76104164 39.65725327 95.00000000
28.44246864 40.49099350 95.00000000
32.59330750 28.25423241 95.00000000
36.16620636 32.33597183 95.00000000
33.81598663 29.74192810 95.00000000
33.58636093 30.04463196 95.00000000
35.41667557 32.07931900 95.00000000
33.26097870 28.53215218 95.00000000
37.64529800 30.12207031 95.00000000
35.47391129 29.95676804 95.00000000
34.65523148 29.72379684 95.00000000
38.26081848 32.12482834 95.00000000
33.61912155 29.20325851 95.00000000
30.60774422 34.12283325 95.00000000
28.40007401 32.27702332 95.00000000
30.55780602 34.34358215 95.00000000
30.83022881 32.50715256 95.00000000
29.23050690 33.22308731 95.00000000
30.71671867 38.93024826 95.00000000
29.62530518 35.85677719 95.00000000
31.22426414 38.72743988 95.00000000
31.65440369 36.97025299 95.00000000
30.10712433 37.74304962 95.00000000
29.18619347 34.36186981 95.00000000
32.40770340 31.69451141 95.00000000
32.04742432 31.94102097 95.00000000
36.27342224 33.58246994 95.00000000
33.79144669 33.39797211 95.00000000
34.25883484 33.56846237 95.00000000
35.59577942 33.16033936 95.00000000
32.24300766 34.00591660 95.00000000
33.61800766 34.41038895 95.00000000
34.93188095 35.13420868 95.00000000
32.79155350 37.00610733 95.00000000
31.92848587 33.92256165 95.00000000
33.50837326 33.80112076 95.00000000
-42.97447205 -0.71478033 96.67922974
-42.99617386 -0.10708673 99.72310638
-42.96060562 -1.10305727 97.59702301
-42.98474503 -0.42711306 96.42477417
-42.89381027 -2.97328520 99.68708801
-42.90777206 -2.58234882 98.50467682
-42.92562103 -2.08257413 95.83183289
-42.65629959 -5.24539471 96.05400848
-42.72421646 -4.61368847 96.38511658
-42.65650940 -5.24346972 98.52848053
-42.67170715 -5.10209751 97.26109314
-42.79778671 -3.92939878 99.62685394
-42.57054901 -6.04300213 99.89375305
-42.84928513 -3.45036340 98.79518127
-42.68113327 -5.01443005 99.25930786
-42.41770935 -6.92106915 97.19847107
-42.51824951 -6.36380243 95.40084076
-42.44236374 -6.78441620 98.26997375
-42.35046387 -7.29378843 96.60134125
-42.02736664 -9.08459759 96.44458771
-42.10094452 -8.67678833 99.24644470
-42.04605865 -8.98098087 98.47231293
-42.07226181 -8.83574677 98.54467010
-41.83678055 -9.84762859 95.65225983
-41.49319458 -11.19379139 97.22122955
-41.27836990 -12.03546524 96.37063599
-41.30158615 -11.94450188 95.40074921
-41.71151733 -10.33841038 97.06049347
-41.84524155 -9.81447411 96.13490295
-41.97544479 -9.30434608 99.91572571
-41.91972351 -9.52266121 99.29672241
-41.08003616 -12.64979172 99.32556152
-41.12188339 -12.52406693 97.15956879
-40.66944885 -13.88340569 98.94483185
-41.19834900 -12.29431820 97.93347931
-40.62731171 -14.01000690 95.75772095
-40.42895508 -14.60597038 97.50653076
-41.16420746 -12.39689445 95.47893524
-40.32990265 -14.90357685 98.78792572
-40.01403809 -15.69038105 95.35304260
-39.74875641 -16.33083153 97.13121033
-39.98959351 -15.74940300 98.15299225
-39.45795822 -17.03288651 95.26501465
-38.77556992 -18.53929710 97.03039551
-38.86589432 -18.35885239 97.60082245
-38.89739609 -18.29592323 98.93901062
-38.94827652 -18.19427299 97.02270508
-39.64085007 -16.59134674 97.43657684
-39.30963516 -17.39097214 97.33141327
-39.28182220 -17.45811462 98.03926849
-39.74386978 -16.34263420 98.87718964
-37.99677277 -20.09512901 99.50374603
-38.52364731 -19.04257584 99.17731476
-38.01873779 -20.05125427 98.44905090
-37.86628723 -20.35581017 99.34603882
-36.93368149 -21.96701050 95.01116943
-37.15853119 -21.58805084 95.23884583
-36.82958603 -22.14245605 96.81521606
-35.57154083 -24.11512184 97.37171173
-35.70666122 -23.92050743 97.58329010
-35.73439789 -23.88055992 95.65319824
-35.84022522 -23.72814178 96.98580170
-37.61650848 -20.81616974 98.49987030
-37.34775162 -21.26913643 99.78121185
-37.18815994 -21.53811646 98.34918213
-37.37939072 -21.21580696 99.01773834
-34.75176239 -25.29582977 98.74490356
-35.47068405 -24.26037979 98.72750092
-35.30415344 -24.50023270 98.36602783
-34.47795868 -25.69017982 97.88776398
-32.91451645 -27.64119339 96.66042328
-32.83580017 -27.73887253 96.55801392
-33.00301361 -27.53137207 97.81813049
-32.59867477 -28.03312874 98.77143097
-32.09549332 -28.59050751 95.85852814
-32.29273605 -28.37865448 96.58525848
-31.53387833 -29.19372559 97.62251282
-32.02197647 -28.66946983 98.18685913
-34.14533997 -26.11383247 98.48946381
-33.48889160 -26.92843819 97.74473572
-33.96823883 -26.33360100 99.47441864
-34.42105103 -25.77170181 98.58308411
-30.52585220 -30.27642250 96.71714020
-30.71702576 -30.07108879 96.68007660
-30.61892509 -30.17645645 97.49822998
-30.41136742 -30.39938927 96.42682648
-28.30036545 -32.36562729 96.05934143
-30.09248924 -30.69710159 95.22952271
-28.74356270 -31.95299530 98.59901428
-28.83773232 -31.86532021 96.72266388
-27.68399811 -32.88002014 97.74338531
-26.49187660 -33.84069443 95.42594910
-26.70208359 -33.67129898 96.65200043
-27.35079193 -33.14853668 95.10269165
-29.38025665 -31.36021233 97.73255157
-30.23560333 -30.56385612 98.85406494
-29.34459114 -31.39342117 97.66844177
-26.69691086 -33.67546844 99.82859039
-27.12160110 -33.33322906 99.73154449
-25.90888977 -34.31049728 95.79800415
-26.42816734 -33.89203644 96.84900665
-23.96285820 -35.67725754 97.51781464
-25.32403374 -34.73217773 95.17530823
-24.93811607 -35.00012589 96.53674316
-24.78839111 -35.10408020 95.27230072
-22.91589165 -36.37068558 95.48166656
-21.74395370 -37.06602859 95.58955383
-22.53404999 -36.59724045 96.00310516
-23.07040977 -36.27900696 97.95214844
-25.03808212 -34.93071747 97.41900635
-24.65197754 -35.19879150 97.59436798
-25.44746780 -34.64647675 96.29147339
-25.68251038 -34.48328018 99.02314758
-21.12573242 -37.43283844 96.71777344
-22.29507637 -36.73903275 98.34651947
-21.51562691 -37.20149994 97.20687103
-21.25563240 -37.35576248 99.12714386
-20.23760986 -37.92545319 95.44902802
-19.79724884 -38.14588165 96.19211578
-19.13293457 -38.47841644 95.71903229
-19.24463654 -38.42250061 98.15113831
-20.44790459 -37.82018661 98.74571991
-18.45236397 -38.81908417 99.17835236
-20.26166916 -37.91341019 96.16463470
-15.12750530 -40.24718857 99.10536194
-16.32869339 -39.74964142 97.09390259
-15.71769333 -40.00272751 97.95881653
-15.30632973 -40.17311859 97.70870972
-16.49024391 -39.68272781 97.55619812
-16.58926773 -39.64171219 98.99479675
-17.03958893 -39.45518494 96.94644165
-17.83430481 -39.12599945 96.00669098
-12.21043968 -41.22626495 97.93721008
-12.34525681 -41.18139267 98.75888824
-12.63976097 -41.08337402 97.73242188
-12.09997463 -41.26190567 97.77650452
-11.53816700 -41.40529633 95.27064514
-11.33556938 -41.45700836 96.09589386
-11.89894485 -41.31321335 98.38294220
-14.90960312 -40.32789993 96.00581360
-12.30821705 -41.19372177 99.89215851
-14.96133995 -40.31068039 95.21249390
-13.58554840 -40.76858521 97.80097961
-10.15933800 -41.75722122 98.82045746
-9.45273209 -41.93757248 97.64773560
-9.27071953 -41.98402786 96.81436157
-9.78919888 -41.85169601 96.60944366
-6.32431078 -42.52537537 95.38958740
-8.47742939 -42.13690948 95.47477722
-7.12462425 -42.38098526 95.30684662
-6.29554415 -42.53056717 95.96323395
-8.79767418 -42.07913208 97.46422577
-8.33921528 -42.16184616 98.42686462
-8.80013371 -42.07868958 97.83189392
-8.28543758 -42.17155075 96.87068939
-3.14673162 -42.88193130 98.48710632
-3.19060659 -42.87721634 95.01288605
-3.36053181 -42.85894775 96.96524048
-4.53049755 -42.73316193 96.74886322
-3.01767397 -42.89222336 96.86420441
-1.19822681 -42.95720673 95.58055878
-2.53778386 -42.90936279 95.56084442
-1.43388236 -42.94878769 96.94083405
-6.04002571 -42.57086945 96.55303955
-6.08145618 -42.56641388 96.70622253
-5.52545881 -42.62619019 99.07209015
-5.16969252 -42.66444016 98.92790985
-1.32840860 -42.95255661 97.65361786
-1.41361606 -42.94951248 99.23161316
-2.02544594 -42.92766190 99.32170105
-0.54143208 -42.98066330 97.33650208
2.49107599 -42.91103363 96.83410645
2.99570870 -42.89300919 98.89283752
3.03514504 -42.89160156 99.06985474
2.31609440 -42.91728210 96.82411194
2.06791687 -42.92614365 99.93995667
1.66970801 -42.94036484 98.68887329
0.92018104 -42.96713638 98.20411682
5.00333977 -42.68232346 96.22122192
5.74891424 -42.60216904 98.40049744
5.57271242 -42.62111282 96.67194366
5.29824352 -42.65061951 96.64217377
5.94876003 -42.58068085 99.87654114
3.68538928 -42.82402039 99.88777161
4.72618866 -42.71212387 99.67192841
6.76631451 -42.44562912 96.06828308
7.27561474 -42.35374069 96.28889465
7.51297665 -42.31091690 97.13100433
7.54855394 -42.30449677 95.30104065
6.65594959 -42.46554184 99.87668610
7.21791172 -42.36415100 96.84849548
6.83076191 -42.43400192 96.46418762
7.79183626 -42.26060486 98.57264709
10.64202118 -41.63402557 96.67547607
11.74377918 -41.35281754 97.72200775
10.05620766 -41.78354645 95.87567902
10.78176785 -41.59835815 97.55297852
9.22620869 -41.99539185 96.03099060
10.27496529 -41.72771072 99.40099335
11.42857361 -41.43326950 99.69327545
9.92056274 -41.81816483 98.88629150
12.68330574 -41.06888199 95.02142334
12.72400570 -41.05533600 96.03818512
12.33267307 -41.18558121 95.27246857
14.49838257 -40.46476364 95.35107422
12.36462593 -41.17494965 96.14680481
13.01037407 -40.96002197 97.43579102
12.32839966 -41.18700409 95.39059448
13.39599705 -40.83167648 98.37941742
15.07026482 -40.27090073 96.91633606
15.78909397 -39.97315216 97.94898987
15.26638126 -40.18966675 96.12057495
17.34209442 -39.32987976 99.63243103
17.30718040 -39.34434128 98.79866028
16.80580521 -39.55201721 95.56236267
16.85167122 -39.53302002 97.96995544
17.41177940 -39.30101395 98.60335541
19.90951157 -38.08968735 99.39001465
19.12684822 -38.48146057 97.92488861
19.47147560 -38.30895615 99.68803406
18.06409836 -39.01343918 95.20564270
18.16893959 -38.96095657 95.06591034
20.01531982 -38.03672409 96.18649292
19.33880997 -38.37536240 96.77321625
21.09163666 -37.45306778 98.40300751
22.66243935 -36.52106857 99.84113312
21.50116158 -37.21008682 98.18663788
22.11131477 -36.84806061 98.96384430
22.93552589 -36.35903549 99.06571960
23.19344711 -36.20600510 98.84433746
22.91421318 -36.37168121 97.26506805
22.08754921 -36.86216354 95.52886963
23.44411469 -36.03742599 98.70130920
23.40233231 -36.06643677 95.59519196
23.85306358 -35.75348663 99.62626648
24.64432716 -35.20410538 98.27614594
25.16824913 -34.84033966 95.40340424
25.21598625 -34.80719757 96.92687225
25.62664604 -34.52207184 98.60251617
25.11301994 -34.87868881 97.98306274
25.87185860 -34.34033585 95.79522705
26.74165154 -33.63941193 97.52393341
27.67492867 -32.88732910 95.87551880
27.86749458 -32.73215103 95.13726807
27.49747086 -33.03033447 96.71016693
26.39805222 -33.91630173 99.59941101
27.29247284 -33.19553375 98.38020325
27.04256248 -33.39692307 99.47821808
29.06924438 -31.64977455 96.43338013
29.44129372 -31.30338478 96.25020599
28.35374260 -32.31592941 97.95368195
29.18872643 -31.53853226 96.25955200
30.07191658 -30.71625328 97.49120331
30.28361702 -30.51915359 95.83734131
29.01592636 -31.69941521 99.79517365
30.16834831 -30.62647438 97.79375458
31.43476295 -29.30018425 99.05693054
30.72330093 -30.06434822 98.45059967
30.51706696 -30.28586006 97.73014832
30.59156990 -30.20583725 97.26316833
32.39624405 -28.26747894 96.25856781
31.84521866 -28.85932159 97.67063904
32.11852264 -28.56577301 98.71170044
31.93087387 -28.76732063 97.60887146
32.91310120 -27.64294624 99.80323029
33.24208069 -27.23470879 98.40940094
32.58983231 -28.04409790 96.69011688
33.48603821 -26.93197632 98.16756439
33.57421875 -26.82255554 95.96543884
34.14873505 -26.10962105 97.50551605
33.44735718 -26.97997665 96.07217407
34.95637512 -25.00112915 97.99993896
34.47300339 -25.69732094 98.04484558
34.58649063 -25.53386497 99.38506317
35.47852325 -24.24909210 99.24649811
35.62666321 -24.03573036 97.45143890
36.01264954 -23.47980309 96.67099762
34.98613739 -24.95826340 96.16648865
34.60793686 -25.50297546 95.03716278
36.75621796 -22.26610947 99.89620209
37.30009460 -21.34945679 98.94004059
36.65264893 -22.44066620 97.18520355
36.26700211 -23.09064293 98.73863220
37.38668060 -21.20352364 97.70268250
37.71395874 -20.65192604 98.88835907
36.59674072 -22.53489876 95.86993408
37.37037277 -21.23100662 95.29375458
38.99219513 -18.10653496 97.96186066
38.08132172 -19.92622948 95.06639099
38.96768188 -18.15550423 98.44907379
38.22480774 -19.63957405 96.65042114
37.75489044 -20.57834816 99.79237366
38.25666428 -19.57593536 98.71748352
37.79257202 -20.50306702 95.61580658
38.09201813 -19.90485573 99.11838531
39.97245407 -15.79077530 96.00503540
39.76702881 -16.28672028 97.15439606
39.85370255 -16.07746696 97.03797913
39.29602432 -17.42383194 95.71121979
39.15267944 -17.76989746 98.29255676
39.20823669 -17.63576889 96.34452820
39.68793488 -16.47767258 98.74059296
39.27847672 -17.46619797 98.56501007
40.41888809 -14.63621616 95.31694031
41.23772049 -12.17602253 95.25244141
41.20261383 -12.28150558 99.51605225
41.20035172 -12.28830051 99.36221313
40.54442978 -14.25902748 99.38691711
40.88420105 -13.23818016 98.47200775
40.46771240 -14.48952007 98.62954712
40.54212189 -14.26596737 98.10368347
41.43968201 -11.40345192 95.53328705
41.76132202 -10.14328003 95.72016144
41.73370361 -10.25147915 95.50143433
41.53610992 -11.02565098 95.02064514
41.46586990 -11.30084610 98.46407318
41.68104172 -10.45780945 98.97242737
41.80203629 -9.98375130 98.69889069
41.48772049 -11.21522808 98.07759857
42.44235611 -6.78445244 96.23747253
