12.19061947 -48.48366928 66.30973816
10.67057037 -48.82344055 37.54536819
11.53845406 -48.62944412 10.91666126
12.10956860 -48.50178528 8.82288456
11.94053459 -48.53956985 6.83650589
9.88888550 -48.99816513 2.33481145
12.38782597 -48.43959045 56.99991608
9.49732876 -49.08568954 0.48443171
10.26122189 -48.91493988 8.03220081
12.10028553 -48.50386047 71.91536713
12.10089493 -48.50372696 83.82695770
11.00529194 -48.74862289 30.42904472
11.86648369 -48.55612183 55.76057434
10.52644634 -48.85565567 5.90402842
11.97967911 -48.53082275 32.96940231
10.00269985 -48.97272873 0.83298051
10.28029346 -48.91067886 19.97246170
12.36027241 -48.44574738 0.02872317
10.11398506 -48.94785309 6.49999714
11.97412491 -48.53206253 35.39851379
11.25531769 -48.69273376 8.80379009
11.80490303 -48.56988907 17.70632935
11.88259888 -48.55252075 38.34611130
12.20950127 -48.47945023 59.36477280
11.65532589 -48.60332108 0.98352516
12.11508369 -48.50055313 59.91149521
11.93334961 -48.54117584 23.62985229
11.94797421 -48.53791046 38.78787994
12.42565632 -48.43113327 44.41150284
11.85092926 -48.55959702 69.59848785
11.02919960 -48.74327469 31.92725372
9.78095722 -49.02228928 12.20447922
10.33115005 -48.89931107 25.54103088
10.96010590 -48.75872040 5.43046665
11.50363064 -48.63722992 32.31831360
11.86491013 -48.55647278 44.11923218
11.56564903 -48.62336731 19.78287697
11.48961067 -48.64036179 29.47542763
12.11166668 -48.50131607 54.08297348
8.38185215 -49.27072144 93.95153809
8.45834160 -49.25860596 75.91338348
7.73466253 -49.37322617 85.87182617
6.36318016 -49.59045029 28.83031845
6.54529190 -49.56160355 81.13734436
7.97704601 -49.33483505 70.85147095
6.32575130 -49.59637833 5.78952503
7.32161045 -49.43864822 61.95223236
6.86121368 -49.51156616 38.67195129
8.57156658 -49.24067307 86.39533234
7.92326069 -49.34335327 79.41455841
8.10259533 -49.31494904 80.40164185
6.62809277 -49.54848862 71.40107727
7.97975397 -49.33440781 67.75504303
8.29248047 -49.28487778 72.84406281
7.62755346 -49.39019012 90.56210327
7.45341349 -49.41777039 60.62863541
7.09147501 -49.47509766 93.54562378
7.86156893 -49.35312653 58.19630051
7.50257683 -49.40998459 75.80386353
6.55673504 -49.55979156 42.36810303
6.40454149 -49.58389664 69.15135956
8.98639393 -49.17496872 88.43589783
6.29221392 -49.60168839 66.28928375
7.35712481 -49.43302155 88.68420410
8.35239029 -49.27538681 77.06685638
6.80671549 -49.52019882 79.18174744
7.13845062 -49.46765900 51.72687531
6.32965374 -49.59576035 20.09000969
6.71851015 -49.53416824 16.67734909
7.11709642 -49.47103882 86.68278503
6.36716366 -49.58981705 61.37590027
7.87305212 -49.35130692 74.14717102
7.62149143 -49.39115143 66.04721069
7.13493061 -49.46821594 27.95105553
7.09476662 -49.47457504 82.96704865
7.65223837 -49.38628006 87.01083374
7.96203232 -49.33721542 65.82952881
7.50665426 -49.40933990 38.00308228
7.50329828 -49.40987015 81.96865082
6.34541178 -49.59326172 24.40873528
6.98342228 -49.49221039 87.28729248
6.64655256 -49.54556656 57.58555984
7.38765335 -49.42818832 66.61140442
9.02139664 -49.16942596 92.19028473
7.21753836 -49.45513153 69.60109711
7.40406561 -49.42558670 54.86108017
6.40126324 -49.58441544 68.22142792
6.45203447 -49.57637405 70.30867004
6.57770205 -49.55647278 61.19496155
6.71049833 -49.53543854 88.58612823
7.16116858 -49.46405792 56.64077759
7.47607327 -49.41418457 63.20487976
9.13563251 -49.15133286 93.31563568
7.21926737 -49.45485687 50.64091492
8.80673885 -49.20342636 93.33602905
7.83423138 -49.35745621 64.11321259
7.51772213 -49.40758514 68.20645142
6.79270411 -49.52241898 27.13012123
7.95911455 -49.33767700 67.17689514
6.37571764 -49.58846283 7.03592396
7.33315325 -49.43682098 91.27152252
7.82956696 -49.35819626 70.38406372
6.84079885 -49.51480103 86.06717682
9.13913536 -49.15077972 88.01409912
6.83936691 -49.51502609 49.20231628
6.74643755 -49.52974701 17.22954941
7.10286903 -49.47329330 86.06692505
8.19525623 -49.30027390 79.79821777
7.44616032 -49.41892242 61.16468811
7.34391594 -49.43511581 35.82481003
8.99184227 -49.17410660 90.55964661
6.86880207 -49.51036453 19.75783539
6.59130621 -49.55431747 65.43255615
8.58036327 -49.23928070 37.59287262
8.67016125 -49.22505569 58.17212677
8.80040646 -49.20442963 20.32463837
7.89796495 -49.34735870 22.69970703
8.92107010 -49.18531418 50.86317444
9.04235744 -49.16610718 73.18417358
8.67642117 -49.22406769 33.09980011
7.73291636 -49.37350464 36.29861450
6.86274719 -49.51132202 17.87773514
8.97951126 -49.17605972 42.13366699
8.69729424 -49.22076035 17.77853584
7.54602861 -49.40310287 33.76246262
7.12181950 -49.47029114 22.04370499
8.04257107 -49.32445908 52.53401947
9.33292007 -49.12008667 49.44700241
7.71105814 -49.37696457 30.17813110
9.13560963 -49.15133667 0.52897900
8.73162937 -49.21532059 2.10451627
8.86757660 -49.19379044 7.70115280
8.59050369 -49.23767471 1.43433356
9.09641457 -49.15754318 18.85366058
8.39720631 -49.26828766 12.90198135
7.68325233 -49.38136673 25.71382523
8.41979218 -49.26470947 8.94228077
8.69889450 -49.22050476 21.85894203
9.02435398 -49.16895676 12.04920101
6.74044847 -49.53069305 14.28846455
9.08416653 -49.15948486 46.35699844
7.32996035 -49.43732452 24.44086838
6.58126831 -49.55590820 0.67797792
8.84314632 -49.19765854 15.81135082
9.25226116 -49.13286209 14.39357281
7.98196602 -49.33405685 32.22792053
6.96300507 -49.49544525 18.44620705
8.21362114 -49.29736328 47.23609161
8.24881363 -49.29179001 29.89493561
7.91135597 -49.34524155 5.90088081
8.19448566 -49.30039597 5.55041409
8.16802979 -49.30458832 5.43867588
8.31223774 -49.28174591 15.84148788
6.82251358 -49.51769638 8.27106285
8.86963177 -49.19346619 26.96303940
7.58639145 -49.39671326 27.41301537
8.72006607 -49.21715164 51.20026779
7.14627695 -49.46641922 15.74090767
9.00610256 -49.17184830 22.08205223
9.31695557 -49.12261200 47.35713196
8.84255505 -49.19775391 16.88278389
9.25308228 -49.13273239 41.30374146
9.11432838 -49.15470886 3.25342989
9.07898235 -49.16030502 15.65881348
6.68843603 -49.53893280 7.71359205
7.99672556 -49.33172226 1.90745401
8.75622368 -49.21142578 24.73583031
9.31749725 -49.12252808 8.09476185
6.90797615 -49.50416183 8.38093090
8.57003593 -49.24091339 63.53367233
9.04541874 -49.16562271 57.02450180
9.12080956 -49.15368271 52.09302521
6.75996065 -49.52760696 11.18982506
8.50494099 -49.25122833 35.49975586
9.09647942 -49.15753555 3.19875836
9.33742046 -49.11937332 40.15241623
8.73511314 -49.21476746 5.82605457
8.41724014 -49.26511765 7.17179203
8.65888691 -49.22684479 54.27309418
9.08208847 -49.15981293 12.12124252
8.10193062 -49.31505585 34.76499557
9.15321636 -49.14854813 6.46976995
7.96194506 -49.33723068 14.61264420
8.93566322 -49.18300629 60.48317337
8.65659142 -49.22720718 17.81172943
7.28156519 -49.44498825 2.75014186
8.62092590 -49.23285294 10.81984711
8.69923782 -49.22045135 17.06815910
4.19293833 -49.80176163 10.01397800
4.65833998 -49.75776672 1.96389747
5.15164328 -49.71113586 35.62553024
6.10163260 -49.62133408 82.13700867
5.16378832 -49.70998764 44.24848175
4.73914814 -49.75012970 0.56052363
5.50327826 -49.67789841 27.08924103
4.48313570 -49.77433014 26.72359657
3.99554944 -49.82041931 11.49235344
4.54233217 -49.76873016 35.27547455
5.08220577 -49.71769714 0.38188875
5.87069702 -49.64316559 35.95562744
6.17571926 -49.61433029 38.59155655
6.11737823 -49.61984634 58.13181686
5.76672173 -49.65299606 65.58709717
5.93191051 -49.63737869 41.64892960
4.85852146 -49.73884201 35.54285049
5.28614378 -49.69842148 34.78461456
5.77368259 -49.65233612 50.16851044
5.40372992 -49.68730545 42.17577744
4.61943102 -49.76144409 32.89122009
5.21279716 -49.70535660 45.81240463
5.95828390 -49.63488770 24.03145790
6.06663704 -49.62464523 75.62739563
6.09775734 -49.62170410 48.61598206
5.97940969 -49.63288879 40.24151611
6.07856274 -49.62351990 39.17378235
5.01307106 -49.72423553 41.36864471
5.00656319 -49.72484970 10.13660526
5.30813646 -49.69634247 1.88062394
4.65320253 -49.75825119 43.37184143
5.67231894 -49.66191864 30.30130386
6.18622255 -49.61333847 26.20831680
5.27645683 -49.69933701 63.08764267
5.76484776 -49.65317154 66.77964783
4.97133255 -49.72817993 17.16845703
4.24550724 -49.79679108 33.38014221
5.56597853 -49.67197037 9.73476982
6.05507088 -49.62573624 32.05194473
4.59464025 -49.76378632 40.04447556
4.28023291 -49.79350662 25.45054436
5.27966833 -49.69903564 7.19320250
5.58287621 -49.67037201 68.42940521
5.68240595 -49.66096497 76.23693085
4.23720646 -49.79757690 14.21182442
5.62129831 -49.66674042 72.91011810
5.92978859 -49.63758087 11.35532570
6.09192467 -49.62225342 83.18743896
4.08692360 -49.81178284 8.37341499
3.39110613 -49.87755585 5.39878607
4.71108437 -49.75278091 45.74629211
5.02747488 -49.72287369 3.18733025
4.76107073 -49.74805450 43.29629135
4.14204884 -49.80657196 4.33681488
6.08450890 -49.62295532 26.32122612
6.16141033 -49.61568451 75.56060028
5.25815964 -49.70106888 61.20661926
5.00607491 -49.72489929 44.65617371
5.25980186 -49.70090866 15.21500492
5.37520647 -49.69000244 66.98249817
5.44477654 -49.68342590 25.16498375
5.17533112 -49.70889664 50.75402451
6.09014940 -49.62242126 55.48735428
5.26892376 -49.70005035 23.45921898
6.06710625 -49.62459946 61.44548416
5.11129856 -49.71495056 28.81935692
4.76969290 -49.74724197 16.14611435
4.94769859 -49.73041534 41.83221436
4.26116180 -49.79531097 17.67232132
6.19773769 -49.61225128 30.23059082
5.13165236 -49.71302414 33.06006241
5.18151999 -49.70831299 51.72769928
5.60398579 -49.66837692 10.31197548
5.45683050 -49.68228531 16.85281181
5.12211800 -49.71392822 81.61769867
4.03095198 -49.81707382 88.15806580
3.49730659 -49.86751556 56.40929031
5.47656584 -49.68041992 92.81770325
5.78646898 -49.65112686 85.25578308
3.83960056 -49.83515930 65.95532227
3.78787088 -49.84004974 89.96332550
3.62538099 -49.85541153 35.69539642
3.44595313 -49.87237167 71.31916046
3.84527779 -49.83462524 45.46507263
3.74755096 -49.84386063 62.67575836
6.10358429 -49.62115097 92.08750153
3.81066656 -49.83789444 46.24703217
3.97051215 -49.82278442 39.11749268
5.02564907 -49.72304535 91.83052063
3.40077066 -49.87664032 39.97449875
3.25566339 -49.89035797 43.14096451
4.25905704 -49.79550934 55.70356369
5.21844006 -49.70482254 75.50807190
3.95916271 -49.82386017 47.53507233
3.34092307 -49.88229752 18.74852753
4.96633482 -49.72865295 80.25337219
3.85210204 -49.83397675 42.65754318
4.96695852 -49.72859192 73.02474976
3.87287998 -49.83201599 56.10961914
3.38283944 -49.87833786 48.76945877
4.75291586 -49.74882507 67.37924957
3.99915981 -49.82007599 37.84439850
3.27179646 -49.88883209 73.28567505
4.24992514 -49.79637146 74.95261383
3.37919664 -49.87868118 29.89855194
3.27208352 -49.88880539 27.54465675
3.24126649 -49.89171982 90.62886047
3.64804721 -49.85326767 68.37249756
4.68450356 -49.75529480 60.55975723
5.43748474 -49.68411636 76.72049713
4.78780079 -49.74552917 61.46434784
5.00426340 -49.72506714 65.82527924
3.84286571 -49.83485031 79.13785553
5.28949642 -49.69810486 68.46779633
3.36404490 -49.88011169 79.34144592
5.38222456 -49.68933868 73.69465637
3.89799428 -49.82963943 57.78062820
4.15323353 -49.80551147 65.06213379
4.15915394 -49.80495453 74.53582764
3.95208025 -49.82452774 87.32913208
4.41138792 -49.78110886 94.25123596
3.36000252 -49.88049698 90.02312469
4.80314112 -49.74407959 64.38258362
3.43939304 -49.87298965 94.76332855
3.33784795 -49.88259125 71.95852661
3.37840033 -49.87875748 59.74987030
4.27901316 -49.79362488 35.14314270
4.59145069 -49.76409149 64.59864044
4.08571291 -49.81189728 44.93902588
5.97239399 -49.63355255 87.25839233
3.35201740 -49.88124847 28.43760490
4.19838715 -49.80124664 81.32325745
4.55076504 -49.76793671 74.58436584
4.86143160 -49.73856735 75.01754761
4.97599030 -49.72774124 75.73600006
3.66559458 -49.85160828 63.42524719
4.72129297 -49.75181580 56.32324219
3.65765047 -49.85235977 34.19566345
5.27939224 -49.69905853 68.99395752
3.24038243 -49.89180374 24.83754158
4.28487873 -49.79306793 63.16589355
3.17483830 -49.89799881 4.39980793
3.63531590 -49.85446930 79.83083344
3.67559624 -49.85066223 74.03441620
3.65976429 -49.85216141 17.02904320
5.01847219 -49.72372437 81.68006897
4.05079746 -49.81519699 39.76440430
3.26190329 -49.88977051 47.21873474
4.44954348 -49.77750397 51.28546143
2.38053203 -49.92518616 57.91566849
2.81280327 -49.91160583 68.57998657
2.44416833 -49.92318726 6.61873198
2.12877464 -49.93310165 22.02705574
2.21643400 -49.93034363 51.57164001
0.38841853 -49.98779297 10.95292282
2.90753555 -49.90863037 58.92127609
0.68784082 -49.97838211 16.64239693
2.87304735 -49.90970993 16.75198746
0.63734788 -49.97996902 3.71542287
1.89997768 -49.94028854 28.76669884
2.57213998 -49.91916656 49.89146423
2.69954133 -49.91516113 36.94248199
2.73435807 -49.91407013 66.00159454
2.14513350 -49.93258667 7.92422009
1.53493643 -49.95176315 36.81594467
3.07407975 -49.90339279 86.84091187
2.26830482 -49.92871475 13.44262409
1.68623412 -49.94701004 3.31733847
1.28698945 -49.95955658 20.11404228
3.01051927 -49.90538788 64.07125854
1.02139568 -49.96790314 3.50898862
1.84315908 -49.94207382 19.30012321
2.94645023 -49.90740585 38.47328568
2.77678967 -49.91273499 51.97997665
2.53564739 -49.92031479 47.58129120
2.29050875 -49.92802048 57.98812103
1.72548687 -49.94577408 20.89122200
0.68885332 -49.97835541 14.73424721
1.75165999 -49.94495392 13.23414707
3.12939978 -49.90165329 88.71469879
3.02069378 -49.90507126 17.56490898
0.55758679 -49.98247910 0.00805661
2.46971846 -49.92238617 41.84331894
2.91266632 -49.90846634 3.06670427
1.25777459 -49.96047211 14.44877815
1.87642086 -49.94102859 7.84822083
2.10723782 -49.93377686 29.61135101
3.12132215 -49.90190887 55.23903275
2.44625688 -49.92312241 65.88255310
1.45312405 -49.95433044 16.39849472
2.33981228 -49.92646790 18.18123436
2.37434101 -49.92538452 65.08788300
0.60642684 -49.98094177 7.62418222
1.03731060 -49.96740341 28.96975708
2.13090539 -49.93303299 61.85494995
3.01779842 -49.90516281 9.20851326
1.49234736 -49.95310211 23.96667671
2.37315512 -49.92542267 27.02273560
1.03810382 -49.96737671 20.66755295
3.07197618 -49.90345764 11.02158165
2.78518438 -49.91247559 81.58005524
2.48296022 -49.92197037 18.81104279
3.06702018 -49.90361404 34.36500931
1.20605421 -49.96209717 14.77530956
0.89905089 -49.97174835 10.84334087
1.99950075 -49.93716431 49.91247177
0.59227628 -49.98138809 1.68744040
2.85895824 -49.91015244 3.19122696
1.19712973 -49.96237946 26.56265259
1.01676130 -49.96804428 17.09310150
0.54554451 -49.98285675 9.40360355
1.56284297 -49.95088577 14.25249386
2.54841232 -49.91991043 32.64120102
2.59814405 -49.91835022 12.41912079
1.25990450 -49.96040726 17.22018433
1.13287294 -49.96439743 30.58880806
1.66482961 -49.94767761 50.20188522
2.79265618 -49.91223526 17.92052460
2.21133089 -49.93050766 43.33217239
2.55022478 -49.91985703 24.42634392
1.86563981 -49.94137192 56.35677338
2.23219109 -49.92985153 28.89020920
2.97836232 -49.90640259 41.18764114
2.50442052 -49.92129517 3.87389517
-1.19821131 -49.96234512 59.47997284
-0.60551691 -49.98097229 84.97541046
-0.62092167 -49.98048782 70.79920959
-1.88646364 -49.94071579 73.44932556
-1.29493439 -49.95930481 55.85648346
-0.95574999 -49.96996307 86.76721191
-2.04239678 -49.93581390 69.90835571
-2.67207146 -49.91602707 91.52387238
-0.05238165 -49.99835205 80.32212830
-0.98069006 -49.96918106 34.18626022
-1.52673841 -49.95201874 94.69058228
-1.02025306 -49.96793747 66.81887817
-2.03869915 -49.93593216 86.84590149
-1.05345190 -49.96689224 86.50086212
-0.92942077 -49.97079086 90.76664734
-0.24439768 -49.99232101 68.64335632
-1.05689192 -49.96678543 60.86630249
-0.77379805 -49.97568130 58.64596939
-1.15360045 -49.96374512 51.78520966
-0.48086169 -49.98488998 25.73063087
-2.47987485 -49.92206573 94.82295990
-1.39432919 -49.95618057 69.08811951
-1.40461504 -49.95586014 70.66397095
-0.23035210 -49.99275970 18.53514481
-1.31903625 -49.95854950 54.25356674
-0.48412436 -49.98478699 86.13091278
-0.17727497 -49.99443054 36.13016891
-1.66959393 -49.94753265 60.62396240
-1.15990269 -49.96355057 88.07914734
-0.27599972 -49.99132538 24.58956146
-1.50686061 -49.95264435 58.34330368
-1.00745010 -49.96833801 57.30278397
-0.91472530 -49.97125244 54.07884216
-1.98412979 -49.93764496 90.26276398
-0.38100874 -49.98802567 56.41928864
-1.21187222 -49.96191406 57.06958389
-0.92434973 -49.97095108 67.24026489
-0.63959587 -49.97990036 55.57951355
-0.25730884 -49.99191284 40.74759674
-0.30498061 -49.99041748 60.65670013
-0.97284198 -49.96942902 47.26854324
-0.60130239 -49.98110199 43.72299194
-0.71305633 -49.97759247 67.66442871
-0.36305025 -49.98859024 44.15089035
-1.73630106 -49.94543457 87.56918335
-0.98620856 -49.96900558 75.82376862
-0.38756466 -49.98781967 11.86170483
-1.42017174 -49.95536804 62.42959595
-0.43659854 -49.98627853 52.94735718
-2.71353769 -49.91472244 94.89330292
-1.08767164 -49.96582031 52.54986572
-1.38239586 -49.95655823 91.06480408
-2.57748246 -49.91899872 86.17120361
-1.88990176 -49.94060898 89.21624756
-0.25570053 -49.99196243 84.52235413
-0.69633079 -49.97811508 41.30469513
-0.85069519 -49.97326660 43.88306427
-1.97350240 -49.93798065 67.84410858
-0.44166070 -49.98612213 57.70524979
-1.71507001 -49.94610214 84.37450409
-1.06018257 -49.96668243 54.55043793
-0.82682019 -49.97401810 40.51296997
-0.79885608 -49.97489548 61.04491043
-0.67572707 -49.97876358 64.98180389
-1.13607705 -49.96429825 89.66458130
-0.22224391 -49.99301529 30.12506485
-1.73153865 -49.94558334 64.71994781
-0.87302136 -49.97256470 36.54634094
-0.46047729 -49.98553085 25.35277176
-0.60777044 -49.98089981 41.37270355
-1.36637521 -49.95706177 88.23080444
-0.82308191 -49.97413254 27.95185471
-0.02506102 -49.99921417 86.28771210
-2.20370102 -49.93074799 80.10349274
-0.08636882 -49.99728394 60.75259781
0.62003094 -49.98051453 85.53622437
0.61728561 -49.98060226 70.04660034
1.11993837 -49.96480560 93.91568756
2.17271113 -49.93172073 89.37879944
1.87109458 -49.94120026 92.17559814
1.51021850 -49.95254135 53.20158768
1.33195126 -49.95814133 83.06227112
2.69364500 -49.91534805 84.56351471
1.27944636 -49.95979309 49.69749451
1.61470342 -49.94925690 90.33753967
0.27152926 -49.99146652 38.66789246
0.30106613 -49.99053955 89.73733521
0.28484493 -49.99104691 51.96512222
1.00583947 -49.96839142 80.86994934
0.02918652 -49.99908447 77.27157593
1.39320898 -49.95621490 93.57915497
2.73888588 -49.91392899 83.25594330
0.87989897 -49.97234726 41.44094086
1.98818445 -49.93751907 64.50845337
0.37062380 -49.98835373 52.10087967
0.00123582 -49.99996185 17.57254410
0.82747310 -49.97399521 55.82210541
1.31688023 -49.95861435 63.73873901
1.63840997 -49.94850922 61.39678955
2.15322351 -49.93233109 85.44490814
1.88728619 -49.94068909 92.98613739
2.20296764 -49.93077087 73.47470093
0.50148571 -49.98424149 82.57886505
0.34987143 -49.98900604 84.22681427
0.40616956 -49.98723602 30.62424850
0.93616617 -49.97058105 30.58668518
0.90985703 -49.97140503 74.94891357
0.62872362 -49.98023987 94.17554474
0.01865615 -49.99941254 36.09642029
0.99101233 -49.96885681 92.30490112
0.34762573 -49.98907471 27.03983688
0.71820652 -49.97742844 76.77655029
2.27003050 -49.92866135 88.84997559
0.51764113 -49.98373413 84.86723328
0.80764371 -49.97461700 46.65246582
2.02349019 -49.93640900 69.01239014
2.43789005 -49.92338562 87.72080231
0.73758227 -49.97682190 51.05509186
0.44129699 -49.98613358 92.75018311
0.01294372 -49.99959183 42.57520294
0.04769747 -49.99850082 57.44425583
1.96366739 -49.93828964 65.94120026
1.59041107 -49.95001984 51.13891602
0.61261880 -49.98074722 46.56040955
1.86135864 -49.94150543 72.90708160
0.25019017 -49.99213791 49.84395599
0.21211565 -49.99333572 53.12092972
1.36925614 -49.95697021 44.54949188
1.75528920 -49.94483948 66.47047424
0.78082716 -49.97546005 91.99192810
1.11993575 -49.96480560 72.58589172
0.58586574 -49.98159027 93.63063049
1.79828131 -49.94348526 60.77149963
0.67624629 -49.97874832 68.99330902
0.09975614 -49.99686432 5.10155106
2.82777929 -49.91113281 86.94477081
1.16050410 -49.96353149 82.25116730
1.83461392 -49.94234467 92.71995544
0.88226205 -49.97227478 46.43862915
1.79729617 -49.94351959 78.48651123
1.06555223 -49.96651459 40.37933350
0.90042162 -49.97170258 68.57869720
0.23385142 -49.99264908 92.29951477
1.33848202 -49.95793533 66.95188141
0.08807210 -49.99723053 22.15747452
2.84711790 -49.91052628 86.20569611
2.01152492 -49.93678665 68.69672394
0.02531653 -49.99920273 58.76821899
1.36118519 -49.95722198 60.51322937
-2.93633389 -49.90772247 83.09451294
-3.03062510 -49.90475845 69.17808533
-0.67785239 -49.97869873 3.00722098
-2.84033275 -49.91073990 35.16475296
-0.86893439 -49.97269440 24.75689316
-2.31767750 -49.92716599 39.52950668
-1.80282462 -49.94334412 52.43217468
-0.50211096 -49.98422241 8.11433411
-3.08424568 -49.90307236 74.67546844
-2.51301265 -49.92102432 1.60292435
-2.50265288 -49.92135239 61.07548904
-3.00458050 -49.90557861 64.97515106
-2.94980645 -49.90729904 84.30799103
-1.85978830 -49.94155502 36.45657349
-3.08326244 -49.90310669 31.82219696
-3.01794076 -49.90515900 89.55589294
-1.91635883 -49.93977737 6.27811766
-2.78615022 -49.91244125 61.37511063
-2.98172140 -49.90629578 30.76909447
-2.23980498 -49.92961121 65.95808411
-1.74333620 -49.94521332 20.55113602
-2.56195807 -49.91948700 13.89323044
-1.71607673 -49.94607162 1.59844100
-2.10076165 -49.93398285 40.41684723
-2.64339304 -49.91692734 74.90753174
-3.13078570 -49.90161133 72.16957092
-1.99960196 -49.93716049 46.33773041
-2.20721889 -49.93063736 33.51846313
-2.23751855 -49.92968369 11.57488632
-1.37041438 -49.95693207 5.44156647
-1.47513413 -49.95364380 3.24796748
-1.31542611 -49.95866013 18.27383804
-1.15554774 -49.96368408 21.41363525
-2.80223107 -49.91193771 15.31056976
-2.35895205 -49.92586899 22.28250122
-1.05922079 -49.96671295 14.86833191
-0.68135571 -49.97858810 19.48959351
-1.03699040 -49.96741104 12.40049458
-3.06350183 -49.90372467 69.72096252
-2.19306850 -49.93107986 16.00086403
-0.74861646 -49.97647476 6.91439772
-1.86017942 -49.94153976 0.97903842
-3.05590725 -49.90396500 92.05382538
-2.52049994 -49.92079163 16.04225731
-2.41195774 -49.92420197 58.25608444
-1.59965861 -49.94972992 13.64111233
-1.27718508 -49.95986176 22.74234009
-2.42287421 -49.92385864 60.70404434
-2.78342867 -49.91252899 51.15630722
-0.72023535 -49.97736740 19.26525497
-2.67926788 -49.91580200 76.85528564
-2.35531592 -49.92597961 6.00542593
-1.93475556 -49.93919754 56.55761719
-0.58487320 -49.98162079 2.23715401
-1.91842210 -49.93971252 55.87275696
-1.11645365 -49.96491241 24.05327797
-0.83676672 -49.97370529 11.16575050
-0.47424674 -49.98509598 8.48605442
-2.03488040 -49.93605042 3.83778429
-1.22460699 -49.96151352 19.91413689
-2.14356613 -49.93263626 51.16535950
-1.70916164 -49.94628906 13.68479156
-2.60840988 -49.91802597 77.51087952
-2.39101744 -49.92485809 32.13904572
-3.03881264 -49.90450287 20.52787399
-2.37519765 -49.92535782 5.53848314
-3.02926230 -49.90480042 26.38127327
-3.04363465 -49.90435028 11.77215481
-0.81249666 -49.97446442 23.95611000
-1.78572488 -49.94388199 8.32864761
-3.07714391 -49.90329742 83.32235718
-1.90342140 -49.94018173 10.36350918
-1.52151549 -49.95218277 8.36198807
-2.97093582 -49.90663528 16.71408844
-1.75894248 -49.94472504 11.64166832
-4.45963335 -49.77655029 9.63585663
-3.17701077 -49.89779282 3.38839221
-3.74210262 -49.84437561 22.39620018
-3.46603584 -49.87047577 79.05216980
-4.33285999 -49.78853226 11.76820660
-3.29909635 -49.88625336 63.88863373
-3.89003611 -49.83039474 0.27032736
-3.44543386 -49.87242126 67.52624512
-3.98299265 -49.82160568 61.62948990
-4.44792843 -49.77765656 13.26962948
-4.66269779 -49.75735474 3.46127915
-4.76138067 -49.74802399 24.51618576
-3.21102977 -49.89457703 1.04235423
-4.55477810 -49.76755524 29.54379654
-5.14050198 -49.71218872 2.97904825
-4.18732595 -49.80229187 58.81300735
-3.23869371 -49.89196396 89.20228577
-4.46849346 -49.77571106 36.81111908
-5.55149794 -49.67333603 0.88175064
-4.62367153 -49.76104355 8.09109402
-3.89596128 -49.82983398 1.63738990
-3.93653059 -49.82599640 54.05779266
-4.10379553 -49.81018448 3.96507859
-4.41814423 -49.78047180 34.43566132
-4.18578815 -49.80243683 28.31500626
-4.18703079 -49.80231857 61.28850937
-3.31793237 -49.88447189 80.25732422
-4.50608730 -49.77215958 37.96082306
-4.66374207 -49.75725555 34.12757492
-3.83099318 -49.83597183 31.86707306
-3.30487251 -49.88570404 66.91855621
-4.46104002 -49.77641678 18.25703621
-3.79020190 -49.83983231 70.89365387
-5.73648977 -49.65584946 12.19385529
-5.44713593 -49.68320465 12.57120991
-4.95591688 -49.72963715 7.63481045
-5.31657028 -49.69554520 28.78464127
-4.32508278 -49.78926849 38.76886749
-3.28097177 -49.88796616 70.00042725
-3.36322546 -49.88018799 19.96046448
-3.35890150 -49.88059998 76.38415527
-3.29313898 -49.88681412 62.46792221
-3.76666975 -49.84205627 65.49536896
-3.78242683 -49.84056473 24.16279221
-4.83337975 -49.74122238 19.76687431
-6.16185522 -49.61564255 1.35544562
-3.17302656 -49.89817047 27.34064674
-3.43176603 -49.87371063 30.68952751
-4.99595833 -49.72585297 38.32040787
-3.33637714 -49.88272858 4.37317991
-3.94653344 -49.82505035 7.77393675
-3.76529050 -49.84218597 0.73018748
-3.85266352 -49.83392715 50.52159882
-3.92149067 -49.82741928 1.19756114
-3.85179925 -49.83400726 44.08316803
-3.53911257 -49.86356354 31.02286148
-3.91704416 -49.82783890 23.17377090
-3.56839037 -49.86079407 20.53663254
-4.41324282 -49.78093338 27.42886734
-4.83665562 -49.74091339 20.07831573
-4.97841501 -49.72750854 23.73889160
-5.14994717 -49.71129608 3.72865486
-4.03590488 -49.81660461 67.20151520
-4.20463419 -49.80065155 50.81183243
-4.29623508 -49.79199600 46.76849365
-4.29975605 -49.79166412 13.56276417
-4.43384409 -49.77898788 19.53768921
-4.39440250 -49.78271484 9.70838451
-4.31609106 -49.79011917 5.75897408
-3.21704602 -49.89400864 13.02500534
-4.16690159 -49.80422211 24.79534531
-5.18382978 -49.70809555 22.23980331
-3.57426167 -49.86024094 30.51660919
-3.64930391 -49.85314941 21.58568382
-4.84716558 -49.73991776 28.68307686
-4.97174358 -49.72814178 85.29177856
-5.67672539 -49.66150284 47.98667145
-5.59682083 -49.66905594 29.61785889
-5.60748434 -49.66804504 26.97653008
-5.30898046 -49.69626236 42.33604813
-5.67596149 -49.66157150 57.79986572
-4.66255713 -49.75736618 83.66432190
-6.13695765 -49.61799622 61.59755325
-3.95312309 -49.82442856 74.32312775
-4.41259670 -49.78099442 82.35606384
-6.06846857 -49.62446976 48.13018036
-4.63391113 -49.76007462 70.13420868
-5.68138075 -49.66106033 29.48683739
-5.27873993 -49.69912338 63.54241180
-6.23830128 -49.60841751 64.66292572
-3.51132798 -49.86619186 88.09830475
-5.00334930 -49.72515488 79.27891541
-4.38738346 -49.78337860 77.12156677
-3.75115013 -49.84352112 85.46716309
-5.30012321 -49.69710159 44.38102722
-4.80299187 -49.74409485 93.49572754
-4.91275501 -49.73371887 77.36583710
-4.62320852 -49.76108932 90.09050751
-5.82299662 -49.64767456 71.98303986
-5.94137907 -49.63648224 82.89878845
-6.21935177 -49.61020660 1.87953413
-6.11617756 -49.61996078 51.32788849
-4.74581242 -49.74949646 87.41481018
-4.34360600 -49.78751755 77.95348358
-6.08382797 -49.62302017 51.37883759
-6.07909775 -49.62346649 67.31925964
-4.68086195 -49.75563812 65.52146149
-5.28508902 -49.69852066 81.32261658
-5.51652861 -49.67664337 51.87117386
-5.54412603 -49.67403412 26.59490204
-5.04393959 -49.72131729 81.95362854
-3.64744091 -49.85332489 85.12462616
-6.01384830 -49.62963486 32.50958633
-4.92337608 -49.73271179 61.42261124
-5.27678680 -49.69930649 59.20379639
-5.67845011 -49.66133881 75.60836029
-5.52095604 -49.67622375 44.61244202
-5.04702711 -49.72102356 55.03209686
-5.42381620 -49.68540955 79.30255127
-6.21886492 -49.61025238 3.99018812
-5.62224436 -49.66665268 57.76414490
-5.80438328 -49.64943314 90.02594757
-5.64679766 -49.66432953 56.03339005
-5.52155972 -49.67617035 61.44129944
-3.92821145 -49.82678223 79.86080933
-6.26457930 -49.60593414 24.37689400
-6.05702400 -49.62555313 69.09927368
-5.92618799 -49.63792038 73.22563934
-5.55763149 -49.67276001 94.20401764
-4.58273125 -49.76491547 84.22662354
-4.59968424 -49.76330948 62.78491211
-6.17892981 -49.61402893 45.40797043
-5.27922869 -49.69907379 80.63626862
-5.10091019 -49.71593094 80.57279968
-5.74793339 -49.65476990 71.17766571
-4.51689339 -49.77113724 63.90504456
-5.15166187 -49.71113586 55.41661072
-6.21586847 -49.61053848 7.49683762
-4.88602972 -49.73624420 82.73902893
-5.99689865 -49.63123703 11.88041306
-4.07515430 -49.81289291 86.05876160
-4.01616573 -49.81847000 86.18454742
-4.40063047 -49.78212738 69.93883514
-4.08395004 -49.81206131 82.22348022
-5.39379168 -49.68824768 86.61862183
-3.50066328 -49.86719894 92.48670959
-4.09731245 -49.81079865 81.27311707
-5.58542395 -49.67013168 80.50282288
-6.16987181 -49.61488342 12.76457214
-6.19579029 -49.61243439 65.95606995
-6.66253233 -49.54303741 8.25335979
-6.99459124 -49.49044037 66.02166748
-7.20177221 -49.45762634 22.79694366
-7.81510544 -49.36048508 30.86479187
-7.80895948 -49.36145782 14.70158005
-6.28940773 -49.60213470 87.34907532
-8.30327988 -49.28316498 6.18568039
-7.07042789 -49.47842789 45.90325546
-6.83266878 -49.51608658 29.13702011
-6.94684219 -49.49800491 47.50191879
-7.86505842 -49.35257339 29.21993446
-6.58571959 -49.55520248 41.98357010
-6.41546631 -49.58216476 71.67328644
-7.63644743 -49.38878250 0.83672780
-8.05080223 -49.32315445 17.89192009
-6.48040199 -49.57188416 12.61443996
-6.62113762 -49.54959106 36.34399033
-7.58266592 -49.39730072 4.39315605
-7.35138559 -49.43392944 37.61951447
-7.64895916 -49.38680267 52.57718658
-6.38542652 -49.58692551 42.47682190
-7.48229504 -49.41319656 1.91699791
-6.57508278 -49.55688477 50.48304749
-8.40507889 -49.26704407 23.38199425
-6.97983503 -49.49277878 12.87847233
-6.56820297 -49.55797577 33.04174805
-7.60256100 -49.39414978 37.97143555
-7.59272337 -49.39570618 53.54287720
-8.20016670 -49.29949951 32.81262207
-7.79117441 -49.36427307 4.79773474
-6.84633017 -49.51392365 50.76985550
-9.00523281 -49.17198944 8.47078323
-6.74346542 -49.53022003 58.42339325
-8.42203045 -49.26435852 13.27095318
-6.41925478 -49.58156967 15.63804340
-7.40461636 -49.42549896 17.34196091
-8.76936436 -49.20934677 8.34767532
-6.72966099 -49.53240204 51.71844482
-7.86358213 -49.35280609 45.10710526
-7.76292419 -49.36875153 24.66094017
-8.36914253 -49.27273560 0.98795950
-7.59539747 -49.39528275 21.37460518
-6.31069851 -49.59876251 35.94321060
-7.31163502 -49.44022751 18.04673767
-9.23574448 -49.13547897 3.52520418
-8.28799534 -49.28558350 20.51643753
-7.88159847 -49.34995270 7.17449856
-6.59949541 -49.55302048 2.12834263
-7.23213196 -49.45281982 12.42841053
-6.30859280 -49.59909439 46.21454620
-7.76008129 -49.36920166 2.90356255
-8.52515316 -49.24802399 15.02972317
-7.66441393 -49.38435364 33.83397675
-7.89155102 -49.34837723 40.65978241
-7.33740854 -49.43614578 46.57790756
-6.33173752 -49.59542847 63.25283813
-7.42211056 -49.42272949 19.22970200
-8.73581886 -49.21466064 15.67181969
-7.34855366 -49.43437958 55.47589493
-7.08266735 -49.47649384 43.81328964
-8.72552681 -49.21628952 13.33492851
-6.54006433 -49.56243134 29.22183228
-7.32022953 -49.43886566 48.09626007
-8.16672611 -49.30479431 5.57243538
-6.90073442 -49.50530624 6.49604654
-7.63370037 -49.38921738 44.81263733
-7.25821829 -49.44868469 2.74382257
-8.38263035 -49.27059937 29.52338219
-7.63379526 -49.38920212 13.55376911
-7.93300009 -49.34181213 33.77580643
-6.32968330 -49.59575653 15.16662502
-7.62753582 -49.39019012 39.04950714
-8.40146732 -49.26761627 4.74344683
-6.64726734 -49.54545212 13.45075417
-7.91724539 -49.34430695 33.84239197
-8.08892250 -49.31711578 76.19506836
-8.62646866 -49.23197556 33.40170288
-9.15670872 -49.14799500 67.59931183
-8.59080315 -49.23762512 73.51151276
-8.80166435 -49.20422745 70.13803101
-8.07721519 -49.31896973 65.52280426
-9.18259239 -49.14389420 29.14225006
-7.69966793 -49.37876892 81.08819580
-7.72415829 -49.37488937 86.04886627
-6.91331530 -49.50331497 86.18680573
-8.44951057 -49.26000595 48.90259552
-8.98554420 -49.17510605 25.63442230
-6.92230606 -49.50189209 76.53040314
-7.67207050 -49.38314056 77.55596161
-7.60454845 -49.39383316 56.04790878
-9.19144630 -49.14249420 46.37810135
-7.65447140 -49.38592529 64.08512115
-7.86993885 -49.35179901 46.03192902
-8.84105301 -49.19799042 67.86795044
-9.20021343 -49.14110565 62.13753128
-8.82982540 -49.19976807 67.99470520
-8.92506790 -49.18468475 75.16284180
-8.04059410 -49.32477188 80.39316559
-8.71536541 -49.21789551 90.26650238
-8.64291191 -49.22937393 91.14477539
-8.88934803 -49.19034195 69.36242676
-9.34078503 -49.11883926 82.95025635
-8.63693142 -49.23031998 55.95431137
-9.15072155 -49.14894485 70.58560181
-9.00545502 -49.17195129 29.69989204
-8.76726055 -49.20967865 82.45968628
-8.13241768 -49.31022644 62.88634491
-9.20682621 -49.14005661 70.97317505
-7.96312666 -49.33703995 50.61713028
-7.77445269 -49.36692429 61.51360703
-8.85567570 -49.19567490 47.69151306
-7.24811459 -49.45028687 82.19770050
-8.52430439 -49.24815750 65.48651123
-8.91933060 -49.18559265 81.98558044
-9.01625061 -49.17024231 92.34194946
-9.36247063 -49.11540604 40.34292221
-8.48917294 -49.25372314 94.56941986
-9.14709854 -49.14951706 59.92819977
-8.61482525 -49.23382187 55.27330017
-8.08024216 -49.31849289 86.33789063
-7.98691511 -49.33327484 62.91337204
-9.18003273 -49.14430237 12.90147209
-7.23834801 -49.45183563 78.52070618
-8.38636589 -49.27000427 78.17226410
-9.09749317 -49.15737534 81.44819641
-8.46193123 -49.25803757 92.89825439
-8.92283535 -49.18503571 72.63981628
-7.59614086 -49.39516449 89.67562103
-8.70260143 -49.21991730 47.52436066
-7.49590492 -49.41104126 72.97187042
-7.11785793 -49.47092056 73.84046936
-6.77690029 -49.52492142 94.56778717
-9.03230572 -49.16769791 13.14385796
-9.25701714 -49.13210678 45.19156265
-6.97387886 -49.49372482 80.82158661
-7.64113379 -49.38803864 66.78186798
-7.85735512 -49.35379410 50.13182068
-9.19114017 -49.14253998 71.98274231
-6.95605755 -49.49654388 85.14733124
-6.40270567 -49.58418655 93.94766998
-8.82184982 -49.20103073 51.64533615
-8.75107765 -49.21224213 53.10904312
-9.16781807 -49.14623642 25.67645645
-8.94830036 -49.18100357 15.30822182
-9.10164738 -49.15671539 39.47615433
-8.41449642 -49.26554871 36.54571152
-9.15921974 -49.14759827 80.87097931
-7.01006794 -49.48799133 87.32657623
-9.33973408 -49.11900711 84.57315826
-8.57629681 -49.23992538 36.16636276
-10.16531086 -48.93637848 34.60086441
-10.21593571 -48.92506409 24.15906525
-10.18336201 -48.93234634 35.69287109
-9.42013931 -49.10294342 61.18171692
-10.80224133 -48.79400635 5.27473640
-9.87413979 -49.00146484 2.17732549
-9.47943401 -49.08969116 40.54946136
-10.97539520 -48.75530243 19.85714912
-9.65213776 -49.05108643 16.47769547
-10.07967281 -48.95552063 66.20372009
-10.43624210 -48.87581635 37.26358032
-9.87315273 -49.00168228 75.52967834
-9.87288475 -49.00174332 77.11713409
-9.46128559 -49.09374619 66.52675629
-10.71623898 -48.81323242 15.68574619
-9.69793701 -49.04084778 7.19984770
-9.40176868 -49.10705185 79.92468262
-10.13726044 -48.94264984 29.86618423
-10.67586231 -48.82225800 11.22229767
-9.84447956 -49.00809097 37.28370285
-11.37496662 -48.66598892 10.70773029
-9.65184402 -49.05115509 74.32350159
-9.41544724 -49.10399628 53.02561569
-10.03381443 -48.96577454 50.62707138
-10.27702045 -48.91141129 36.71054459
-9.58564091 -49.06595230 0.66366976
-9.92580795 -48.98991394 9.35436535
-10.69495773 -48.81798935 23.39723969
-10.13405704 -48.94336319 44.74461746
-10.01977348 -48.96891022 42.64478302
-10.87747192 -48.77719116 44.29067993
-11.24711800 -48.69456482 26.94762611
-10.57197380 -48.84548187 50.83560181
-12.26652241 -48.46670532 0.31359604
-10.63126373 -48.83222580 21.10796547
-11.18596458 -48.70823669 26.68179321
-10.35533524 -48.89390564 61.04564667
-9.80186081 -49.01762009 43.82715225
-9.54389477 -49.07528305 10.71988010
-9.97762108 -48.97833252 31.70155144
-10.18620300 -48.93170929 5.67482519
-9.41146183 -49.10488510 48.57243347
-10.10780621 -48.94923019 19.41784096
-11.54394627 -48.62821960 8.39970112
-10.89686108 -48.77285767 24.56147385
-9.61344910 -49.05973434 37.00024033
-11.24909210 -48.69412613 20.64665985
-11.29058266 -48.68485260 2.03148770
-9.98164845 -48.97743225 4.76703358
-9.60379410 -49.06189346 29.64040184
-9.45811081 -49.09445953 54.32093811
-9.79870415 -49.01832581 43.61691666
-9.81348038 -49.01502228 64.75508118
-10.49471951 -48.86274719 32.73906326
-11.10422516 -48.72650909 35.68404770
-11.68915653 -48.59576035 15.14980221
-9.63871956 -49.05408859 67.76045227
-10.48325920 -48.86531067 18.11217499
-11.23704338 -48.69681931 10.62001705
-11.12692070 -48.72143173 39.66415405
-10.68915653 -48.81928635 42.10884476
-9.63662720 -49.05455399 20.05509377
-10.53758907 -48.85316467 16.31775093
-9.89074039 -48.99775314 45.53510284
-9.50230598 -49.08457947 41.33586121
-12.14001846 -48.49497986 6.64796352
-10.28243637 -48.91019821 16.80264664
-10.03949451 -48.96450424 59.56393814
-10.85965443 -48.78117371 31.68952179
-11.82426929 -48.56555939 0.83718741
-11.45300770 -48.64854431 13.18756771
-10.07634640 -48.95626450 51.95814133
-10.09901428 -48.95119858 35.70198822
-9.87546825 -49.00116730 67.12181854
-11.78407574 -48.57454300 0.78240800
-11.77223492 -48.57719040 35.62539673
-10.18754196 -48.93141174 77.17565918
-12.34794617 -48.44850159 46.82433319
-11.89551735 -48.54963303 75.85530090
-11.35917664 -48.66951752 38.45949936
-9.81162262 -49.01543808 94.26702118
-12.38719368 -48.43973160 42.18729782
-12.38485909 -48.44025040 71.52868652
-11.94930935 -48.53760910 19.31910706
-10.32204437 -48.90134430 79.37018585
-11.69475365 -48.59450912 52.12431717
-11.32098198 -48.67805481 58.59357834
-11.44507694 -48.65031815 94.74076843
-11.35284042 -48.67093658 59.85270691
-9.57118416 -49.06918335 93.06228638
-11.44981384 -48.64925766 76.03428650
-10.27867031 -48.91104126 92.70935059
-11.87055969 -48.55521011 46.16799927
-11.76935577 -48.57783127 33.38285828
-12.28033066 -48.46361542 9.26893616
-10.00740814 -48.97167587 76.38599396
-11.40235806 -48.65986633 55.38629913
-11.85616779 -48.55842972 65.35294342
-12.20885181 -48.47959518 68.44839478
-10.42202759 -48.87899780 70.37827301
-11.59835815 -48.61605453 35.04996109
-12.19530773 -48.48262024 65.42991638
-10.58899498 -48.84167480 69.05922699
-11.99118996 -48.52824783 70.29791260
-12.07178402 -48.51023102 15.08378029
-12.42731953 -48.43075943 78.11638641
-12.11509800 -48.50054932 85.86617279
-10.57914162 -48.84387589 89.31826782
-12.17064857 -48.48813248 66.60601807
-12.05677414 -48.51358795 92.30934906
-11.66097164 -48.60205841 85.87480164
-11.41055107 -48.65803528 69.89901733
-11.92999458 -48.54192734 89.58428192
-11.54552650 -48.62786484 85.37062073
-11.10615635 -48.72607422 49.89740753
-11.75503063 -48.58103561 25.88969612
-10.19188404 -48.93043900 92.26131439
-11.17868614 -48.70986176 46.24311829
-12.25233173 -48.46987534 22.11396790
-11.68626213 -48.59640503 74.47240448
-11.09787464 -48.72792816 57.55528259
-9.94442844 -48.98575211 90.83631134
-11.51617813 -48.63442612 65.24783325
-10.49626827 -48.86240005 76.06534576
-11.87477207 -48.55426788 83.39820862
-11.06638145 -48.73496628 64.84704590
-10.90867996 -48.77021790 75.98532867
-10.75049973 -48.80557251 88.74948120
-11.80463982 -48.56994629 31.76713371
-11.64065742 -48.60660172 89.48962402
-10.23349190 -48.92113876 83.69558716
-11.32886410 -48.67629623 64.28086853
-9.50257111 -49.08451843 91.04180908
-12.35576057 -48.44675446 36.09185410
-10.12998581 -48.94427490 76.26618958
-11.65374947 -48.60367584 34.54324341
-11.21351433 -48.70207977 39.65362930
-10.35943413 -48.89298630 80.76155853
-12.05208302 -48.51463699 40.03660965
-11.39930344 -48.66054916 88.89532471
-11.26943588 -48.68957901 47.54105759
-11.99685478 -48.52698135 21.16148376
-11.29716682 -48.68338013 54.93729782
-11.98981094 -48.52855682 92.56592560
-11.82441807 -48.56552505 27.89300537
-12.13838196 -48.49534607 71.06690216
-10.97123146 -48.75623322 58.70607758
-11.29154587 -48.68463516 42.57584000
-11.99277496 -48.52789307 69.78908539
-11.95722866 -48.53583908 37.48238373
-14.27665901 -47.89395905 56.81463242
-13.11122608 -48.23254776 91.37661743
-14.10271835 -47.94449234 74.95175171
-14.63011074 -47.79127121 45.48627472
-13.77908707 -48.03851700 86.30770874
-14.22583294 -47.90872574 69.00585938
-13.85305786 -48.01702499 84.47534943
-13.54662514 -48.10605240 91.17623138
-13.69155216 -48.06394958 65.95085144
-13.81551933 -48.02793121 83.94675446
-14.68301010 -47.77590179 85.85852051
-15.34234905 -47.58434677 27.81048203
-12.90343094 -48.29291916 93.56070709
-14.63395977 -47.79015350 78.19747925
-15.15025043 -47.64015961 57.76130295
-13.96371269 -47.98487854 69.04557800
-15.29317093 -47.59863663 16.06747055
-14.11546516 -47.94079208 64.34912109
-15.27602100 -47.60361862 52.61065674
-14.47979641 -47.83494186 70.09069061
-13.80969143 -48.02962494 75.20106506
-12.93348503 -48.28418732 92.08233643
-14.69680214 -47.77189636 77.00153351
-13.58094597 -48.09608459 67.99051666
-13.94620323 -47.98996735 53.82426834
-14.12574577 -47.93780518 62.77220154
-14.35311222 -47.87174606 47.50076294
-13.57429600 -48.09801483 81.76390076
-15.40267467 -47.56682205 36.69118881
-15.17843533 -47.63196945 31.81261444
-13.30117416 -48.17736435 91.05965424
-13.93508148 -47.99319839 55.26427841
-15.19460773 -47.62726974 37.59008789
-15.13985443 -47.64317703 29.03102875
-14.75246716 -47.75572586 73.96311951
-15.38675022 -47.57144928 42.68648911
-14.04442787 -47.96142960 53.80815506
-14.34868717 -47.87303162 73.41007996
-14.82492161 -47.73467636 84.99201965
-14.42434597 -47.85105133 63.86481476
-14.42445946 -47.85102081 75.47216797
-14.96630859 -47.69359970 46.63192368
-14.90437412 -47.71158981 17.60321426
-13.25629044 -48.19040298 89.58136749
-13.63445377 -48.08053589 93.22573090
-14.92978859 -47.70420837 82.44104004
-13.32298946 -48.17102432 68.37678528
-14.42893887 -47.84971619 64.65805054
-13.61514378 -48.08614731 61.94182587
-14.34916401 -47.87289429 49.38545227
-14.08598042 -47.94935608 48.04472733
-12.80036259 -48.32286453 85.95917511
-14.45407009 -47.84241867 39.46917725
-15.21341419 -47.62180710 51.50386810
-14.91585445 -47.70825577 77.79225922
-12.56899261 -48.39008331 90.94908142
-14.65050030 -47.78534698 32.60666656
-14.74475288 -47.75796509 91.92877960
-13.36657619 -48.15836334 86.35476685
-15.24017525 -47.61403275 22.40553093
-14.48614502 -47.83309937 91.71183777
-14.97946835 -47.68977356 41.08158875
-15.02408791 -47.67681122 89.59649658
-13.69138145 -48.06399918 74.55213928
-14.65345097 -47.78449249 74.54180908
-14.83185387 -47.73266220 35.55979156
-14.71718025 -47.76597595 47.85076904
-14.77420902 -47.74940872 50.30995178
-14.02817345 -47.96615219 92.80575562
-14.06221581 -47.95626068 52.84143829
-13.63080978 -48.08159637 75.36613464
-15.11953259 -47.64908218 86.67150116
-14.80668354 -47.73997498 58.88538361
-15.16123772 -47.63696671 58.02630997
-15.10734367 -47.65262222 17.15824127
-12.51342201 -48.40622711 37.64160919
-12.64252567 -48.36871719 86.80012512
-13.08629704 -48.23979187 32.61456299
-12.74471855 -48.33903122 44.92911148
-12.83646202 -48.31237793 19.61183357
-13.60299301 -48.08967972 26.77444839
-13.71674919 -48.05662918 42.90953064
-12.97332859 -48.27260971 22.86085892
-14.17265701 -47.92417526 25.06368065
-13.43405819 -48.13875961 0.55443609
-13.45574760 -48.13245773 2.68428373
-12.51662159 -48.40530014 5.51601267
-15.16261864 -47.63656616 1.03996634
-13.72237682 -48.05499268 39.27003860
-12.66403770 -48.36246872 68.18068695
-12.69781208 -48.35265350 10.62763119
-13.30525780 -48.17617416 63.80744553
-14.56799889 -47.80931854 11.90586472
-13.36987877 -48.15740585 3.50082350
-14.21890545 -47.91073608 28.02308464
-12.70380688 -48.35091400 13.39115238
-13.83325386 -48.02278137 11.84484577
-14.55016327 -47.81449890 22.43993950
-14.59099960 -47.80263519 21.99781418
-13.25336266 -48.19125366 12.72095490
-13.15258312 -48.22053528 41.25188446
-13.90668488 -48.00144577 23.16035080
-12.47312832 -48.41793060 22.03797722
-14.67634201 -47.77783966 3.52094698
-12.45936394 -48.42193222 3.78056931
-14.96906090 -47.69279861 3.22024369
-12.87385845 -48.30150986 44.12165833
-15.22210789 -47.61928177 4.38404942
-12.61216354 -48.37754059 31.06857300
-12.91461182 -48.28967285 65.48025513
-12.93733215 -48.28306961 61.05613327
-13.57967949 -48.09644699 58.17089844
-12.87777805 -48.30036926 24.49691772
-12.94118500 -48.28195190 42.09767532
-13.10703564 -48.23376465 31.03536987
-13.94349957 -47.99074936 20.82120514
-15.04159927 -47.67172241 8.79393959
-12.46313477 -48.42083740 93.27881622
-12.92438126 -48.28683090 44.18331528
-13.45148373 -48.13369370 32.88801193
-14.16996765 -47.92495346 24.00560570
-13.05784416 -48.24805832 69.21240234
-14.02405548 -47.96734619 42.57013321
-12.45171165 -48.42415619 20.85268593
-13.76170444 -48.04356766 40.82589722
-13.20456505 -48.20542908 65.12942505
-13.07631588 -48.24269104 3.08342195
-14.13814831 -47.93420029 40.61773300
-12.63572121 -48.37069321 77.09886169
-13.84734917 -48.01868820 31.55732346
-12.48579693 -48.41425323 5.82297373
-13.62694073 -48.08272171 44.25181580
-13.20499611 -48.20530701 30.24993896
-13.81954861 -48.02676392 32.27777863
-14.03933620 -47.96290970 8.69581223
-13.34395409 -48.16493607 17.35523605
-13.87641811 -48.01023865 6.78334713
-14.68059826 -47.77660370 21.08811188
-12.67526722 -48.35920715 29.13501358
-13.24954987 -48.19235992 65.41901398
-12.80901432 -48.32034683 51.80443954
-12.96137428 -48.27608490 25.08099556
-13.29173946 -48.18010712 31.31958199
-13.60405540 -48.08937073 37.54668427
-12.97653484 -48.27168274 69.80750275
-13.76823044 -48.04167175 22.64109993
-13.54319954 -48.10705185 22.49835587
-15.01121998 -47.68054962 6.45310211
-13.19871330 -48.20713043 44.03696823
-12.74825859 -48.33800125 74.32778931
-15.96826458 -47.36654663 43.03462982
-15.84219170 -47.41193390 63.47157669
-16.81839752 -47.06047821 49.56274796
-15.94469070 -47.37503052 62.00666428
-17.54754066 -46.79796982 16.78244019
-15.47290516 -47.54488754 14.77747250
-15.49561119 -47.53670883 30.02230835
-15.85090256 -47.40879822 80.40660858
-16.68367195 -47.10898209 12.03489304
-16.65165710 -47.12050629 50.98021698
-15.80078316 -47.42684174 29.40937424
-16.29886246 -47.24752045 64.77111053
-15.81006527 -47.42350006 8.73571777
-15.65163612 -47.48053741 38.87874603
-17.17017174 -46.93383026 4.52958298
-15.48717117 -47.53974915 21.34914970
-16.17049026 -47.29373932 20.00757217
-16.31659508 -47.24113846 1.64704573
-15.94837856 -47.37370300 76.05955505
-16.72351456 -47.09463882 50.12220383
-17.25357819 -46.90380478 5.30946302
-16.38949203 -47.21489334 15.67197990
-16.05682945 -47.33465958 71.83298492
-16.90237045 -47.03024292 3.21766567
-15.90796089 -47.38825607 1.91678858
-16.07036018 -47.32978821 57.54561234
-16.08455658 -47.32467651 12.58654499
-15.67706490 -47.47138214 68.19071960
-15.49782658 -47.53591537 78.68932343
-15.63145733 -47.48780441 69.85159302
-16.81315422 -47.06236649 43.15729523
-15.63945389 -47.48492432 54.62987518
-17.21505165 -46.91767502 35.63801956
-16.78202629 -47.07357407 37.60759354
-15.46655178 -47.54717255 64.33203888
-16.32933044 -47.23654938 0.27740648
-16.04591942 -47.33858871 15.45518303
-15.91643333 -47.38520432 38.18512726
-17.60277748 -46.77808380 19.18727875
-15.69980812 -47.46319580 47.05210114
-16.88291550 -47.03725052 4.76980305
-16.76564026 -47.07947159 4.39952660
-15.76499176 -47.43972778 35.13096619
-16.95728874 -47.01047516 26.42920303
-16.98481369 -47.00056458 45.49600601
-16.12257767 -47.31098938 66.97837067
-18.08910370 -46.60299683 9.62034321
-16.19958115 -47.28326416 61.43958282
-17.49311256 -46.81756592 6.51484823
-17.71914291 -46.73619080 8.26613712
-17.88474655 -46.67656708 13.73398781
-17.68930054 -46.74693298 21.56354332
-17.69298172 -46.74560547 19.71286011
-17.11862946 -46.95238495 41.04445648
-15.94882202 -47.37354660 28.99725723
-16.49561310 -47.17668915 44.69304657
-15.90485764 -47.38936996 8.12091732
-16.72033691 -47.09577942 9.20745945
-16.14172554 -47.30409622 26.90675926
-15.53801918 -47.52144241 71.72253418
-17.55906487 -46.79381943 3.62810230
-16.24215889 -47.26794052 35.41240311
-17.01951408 -46.98806763 25.22985077
-17.11800194 -46.95261383 39.74700928
-17.30376625 -46.88573074 21.73943901
-16.05113983 -47.33670807 34.58523560
-16.10482407 -47.31737900 10.63931274
-16.19812584 -47.28379059 68.73517609
